x,y,z,yaw,velocity,change_flag
21.5878,229.3893,-0.9743,2.4185,23.6092,0
20.6853,230.2938,-1.1266,2.4001,22.7559,0
19.7967,231.2064,-1.2743,2.3802,22.9603,0
18.9230,232.1465,-1.4096,2.3577,22.8997,0
18.0997,233.0708,-1.5550,2.3298,22.0866,0
17.3289,233.9694,-1.6961,2.2959,21.0082,0
16.5946,234.8798,-1.8108,2.2578,20.9042,0
15.9109,235.8128,-1.9074,2.2192,20.6827,0
15.3061,236.7468,-2.0147,2.1810,19.9268,0
14.7184,237.6960,-2.1330,2.1393,20.0052,0
14.1712,238.6360,-2.2311,2.0979,19.5856,0
13.6812,239.5987,-2.3274,2.0577,19.0672,0
13.2260,240.5624,-2.4071,2.0176,18.9347,0
12.8162,241.5337,-2.5096,1.9774,18.9219,0
12.4478,242.5030,-2.5656,1.9370,18.3824,0
12.1298,243.4836,-2.6269,1.8981,18.5951,0
11.8402,244.4818,-2.6904,1.8584,18.6431,0
11.5892,245.4946,-2.7592,1.8186,18.6200,0
11.3918,246.5080,-2.8188,1.7798,18.4538,0
11.2213,247.5097,-2.8536,1.7424,18.2977,0
11.0876,248.5368,-2.8998,1.7117,18.5841,0
11.0246,249.5660,-2.9484,1.6901,18.5143,0
10.9621,250.6065,-3.0065,1.6753,18.7019,0
10.9027,251.6442,-3.0338,1.6667,18.4525,0
10.8370,253.1068,-3.0761,1.6721,17.1595,0
10.7509,254.5586,-3.1515,1.6909,17.1373,0
10.6319,255.9471,-3.1732,1.7216,16.2742,0
10.4667,257.3223,-3.2222,1.7703,16.4877,0
10.2219,258.6599,-3.2934,1.8256,16.0922,0
9.9188,259.9429,-3.3756,1.8916,15.4811,0
9.5430,261.2343,-3.4815,1.9624,16.3520,0
9.0147,262.5006,-3.6250,2.0384,16.3416,0
8.4489,263.6785,-3.7621,2.1239,15.3055,0
7.7771,264.7783,-3.9409,2.2148,15.8184,0
7.0091,265.8434,-4.0776,2.3084,15.6407,0
6.1461,266.7844,-4.2360,2.4072,15.0315,0
5.1777,267.6290,-4.4497,2.5060,15.7573,0
4.1342,268.4721,-4.6139,2.6053,15.9641,0
3.0272,269.1347,-4.8188,2.7064,15.3425,0
1.8806,269.7101,-5.0314,2.8117,15.7687,0
0.6172,270.1883,-5.2527,2.9195,16.0936,0
-0.6408,270.5332,-5.4600,3.0288,15.5198,0
-1.9259,270.7230,-5.5896,3.1358,15.5216,0
-3.1950,270.7241,-5.7738,-3.0430,15.0438,0
-4.4895,270.6328,-5.9575,-2.9370,15.7992,0
-5.7756,270.4023,-6.1111,-2.8321,15.7599,0
-7.0206,270.0378,-6.2590,-2.7335,15.1967,0
-8.1642,269.5477,-6.4078,-2.6334,15.0890,0
-9.3071,268.9922,-6.4948,-2.5335,14.8617,0
-10.3652,268.3088,-6.5918,-2.4349,15.3951,0
-11.3478,267.4900,-6.6936,-2.3359,15.2264,0
-12.2364,266.5948,-6.7360,-2.2356,15.4371,0
-13.0669,265.5868,-6.8133,-2.1346,15.5075,0
-13.8196,264.4925,-6.8606,-2.0317,15.7277,0
-14.3911,263.3214,-6.8909,-1.9307,15.6668,0
-14.9031,262.0929,-6.8954,-1.8284,16.1945,0
-15.2552,260.8370,-6.8968,-1.7283,15.4304,0
-15.4763,259.5102,-6.8803,-1.6259,16.1970,0
-15.6111,258.1739,-6.8457,-1.5246,15.9780,0
-15.5270,256.8391,-6.7893,-1.4232,15.8507,0
-15.3923,255.5398,-6.7171,-1.3181,15.7665,0
-15.0909,254.2131,-6.6078,-1.2152,16.3760,0
-14.6461,252.9574,-6.5098,-1.1098,15.9190,0
-14.1089,251.8050,-6.3862,-1.0102,15.1616,0
-13.4119,250.6821,-6.2433,-0.9121,16.0488,0
-12.6079,249.5901,-6.0843,-0.8222,16.3079,0
-11.6936,248.5498,-5.8855,-0.7435,16.8710,0
-10.6448,247.5598,-5.7057,-0.6803,17.3061,0
-9.5399,246.6243,-5.5293,-0.6304,17.3835,0
-8.7453,246.0107,-5.4164,-0.6076,18.2902,0
-7.9310,245.3696,-5.3060,-0.5880,18.7966,0
-7.0754,244.7462,-5.1799,-0.5705,18.9964,0
-6.2097,244.1531,-5.0507,-0.5596,18.8078,0
-5.3192,243.5564,-4.9091,-0.5580,19.6196,0
-4.3859,242.9169,-4.7561,-0.5602,20.5324,0
-3.4171,242.2568,-4.6136,-0.5644,21.0169,0
-2.4576,241.5994,-4.4590,-0.5714,20.8488,0
-1.4933,240.9258,-4.2911,-0.5799,21.2982,0
-0.5228,240.2297,-4.1268,-0.5887,21.4242,0
0.4604,239.5118,-3.9788,-0.5980,22.0386,0
1.4297,238.7699,-3.8139,-0.6092,22.1708,0
2.4146,238.0244,-3.6542,-0.6204,22.0746,0
3.3902,237.2352,-3.5013,-0.6306,22.5648,0
4.3822,236.4317,-3.3567,-0.6362,22.8555,0
5.4038,235.6193,-3.1960,-0.6419,23.7284,0
6.3976,234.7963,-2.9999,-0.6465,23.3933,0
7.4182,233.9420,-2.8490,-0.6470,24.2946,0
8.4731,233.0860,-2.6693,-0.6480,24.2832,0
9.4938,232.2230,-2.4975,-0.6493,24.1115,0
10.5397,231.3408,-2.3105,-0.6514,24.6759,0
11.5960,230.4569,-2.0966,-0.6533,25.0386,0
12.6710,229.5750,-1.9711,-0.6559,24.7812,0
13.7409,228.6713,-1.7530,-0.6577,25.5772,0
14.8095,227.7386,-1.5551,-0.6586,25.5599,0
15.9040,226.8185,-1.3973,-0.6596,25.6247,0
17.0041,225.8824,-1.2179,-0.6596,26.3390,0
18.1104,224.9432,-1.0239,-0.6613,26.0063,0
19.2238,223.9882,-0.8404,-0.6633,26.3805,0
20.3453,223.0212,-0.6396,-0.6667,26.7155,0
21.4739,222.0438,-0.4366,-0.6720,26.9627,0
22.6129,221.0576,-0.2814,-0.6767,26.8649,0
23.7103,220.0771,-0.0848,-0.6834,26.6144,0
24.8184,219.0876,0.0909,-0.6908,26.8174,0
25.9553,218.0818,0.3265,-0.6993,27.5953,0
27.0767,217.0360,0.5120,-0.7108,27.5281,0
28.1891,215.9643,0.6956,-0.7237,27.8214,0
29.2918,214.9050,0.8731,-0.7343,27.3173,0
30.4004,213.8105,1.0499,-0.7458,28.2508,0
31.5244,212.6767,1.2372,-0.7580,28.8380,0
32.6394,211.5232,1.4304,-0.7704,28.9366,0
33.7582,210.3595,1.5873,-0.7820,29.1032,0
34.8492,209.1781,1.7574,-0.7921,28.8559,0
35.9286,207.9790,1.9412,-0.8006,29.2889,0
37.0141,206.7641,2.1101,-0.8083,29.0648,0
38.0882,205.5547,2.2801,-0.8177,28.8953,0
39.1304,204.3273,2.4799,-0.8283,29.0773,0
40.1965,203.0705,2.6730,-0.8389,29.9764,0
41.2763,201.7651,2.8564,-0.8493,30.5376,0
42.3298,200.4387,3.0311,-0.8581,30.3349,0
43.3549,199.1173,3.2150,-0.8683,30.0533,0
44.4385,197.7047,3.4133,-0.8774,32.3593,0
45.5036,196.2602,3.6046,-0.8834,31.8672,0
46.5484,194.9067,3.7908,-0.8854,30.3664,0
47.5184,193.6159,3.9539,-0.8859,28.7333,0
48.4761,192.3408,4.1252,-0.8860,28.7867,0
49.5022,190.9964,4.3241,-0.8842,30.7448,0
50.5336,189.6260,4.5099,-0.8804,30.8292,0
51.5501,188.2755,4.6978,-0.8769,30.3965,0
52.5274,186.9734,4.8877,-0.8739,29.3568,0
53.5437,185.6556,5.0866,-0.8715,30.3947,0
54.6067,184.2606,5.2734,-0.8674,31.8131,0
55.6798,182.8631,5.4770,-0.8622,31.6994,0
56.7335,181.5386,5.6800,-0.8579,30.0243,0
57.7938,180.2292,5.8688,-0.8531,30.2734,0
58.8593,178.8874,6.0552,-0.8498,30.9067,0
59.9900,177.4711,6.2507,-0.8460,33.1492,0
61.1416,176.0516,6.4539,-0.8422,32.6847,0
62.2668,174.6737,6.6381,-0.8390,31.5243,0
63.3437,173.3449,6.8258,-0.8383,30.5782,0
64.4079,172.0410,7.0121,-0.8394,30.0616,0
65.4694,170.7397,7.1958,-0.8398,30.5105,0
66.5488,169.4077,7.3982,-0.8396,31.1661,0
67.6655,168.0504,7.6007,-0.8388,31.6148,0
68.7526,166.7202,7.7905,-0.8379,30.5709,0
69.8096,165.4233,7.9814,-0.8381,29.9501,0
70.8722,164.1100,8.1736,-0.8390,30.6031,0
71.9633,162.7707,8.3610,-0.8389,31.1619,0
73.0693,161.4265,8.5599,-0.8384,31.4086,0
74.1705,160.0749,8.7583,-0.8383,31.0912,0
75.2485,158.7460,8.9547,-0.8382,30.8950,0
76.3351,157.4227,9.1430,-0.8376,30.7519,0
77.4248,156.1007,9.3445,-0.8367,31.1699,0
78.5226,154.7312,9.5411,-0.8351,31.4733,0
79.5964,153.4055,9.7450,-0.8359,30.3109,0
80.6661,152.1015,9.9327,-0.8377,30.2133,0
81.7254,150.7924,10.1205,-0.8397,30.3851,0
82.7844,149.4609,10.3193,-0.8418,30.4436,0
83.8523,148.1448,10.5209,-0.8435,30.3641,0
84.9194,146.8337,10.7036,-0.8432,30.5173,0
85.9888,145.4942,10.9026,-0.8427,30.6642,0
87.0499,144.1869,11.0915,-0.8434,30.2573,0
88.1065,142.8752,11.2966,-0.8438,30.2795,0
89.1670,141.5454,11.4994,-0.8441,30.5395,0
90.2060,140.2390,11.7006,-0.8436,29.9487,0
91.2538,138.9391,11.8958,-0.8417,29.8411,0
92.3097,137.6255,12.1167,-0.8408,30.6327,0
93.3863,136.3090,12.3232,-0.8395,30.6079,0
94.4301,134.9892,12.5253,-0.8390,29.9896,0
95.4796,133.6672,12.7320,-0.8384,30.6394,0
96.5514,132.3713,12.9357,-0.8374,30.0754,0
97.6039,131.0731,13.1473,-0.8368,30.2730,0
98.6495,129.7610,13.3578,-0.8377,29.9478,0
99.6862,128.4799,13.5555,-0.8403,29.7513,0
100.7163,127.1823,13.7658,-0.8411,29.7961,0
101.7535,125.8932,13.9581,-0.8421,29.8189,0
102.7796,124.6029,14.1711,-0.8447,29.7370,0
103.7960,123.3048,14.3798,-0.8468,29.6300,0
104.8281,122.0150,14.5742,-0.8495,29.6906,0
105.8539,120.7059,14.7640,-0.8511,29.9864,0
106.8769,119.3831,14.9834,-0.8520,30.0849,0
107.9309,118.0514,15.1875,-0.8518,30.5666,0
108.9607,116.7329,15.3956,-0.8511,30.0866,0
109.9671,115.4386,15.5981,-0.8511,29.2710,0
110.9705,114.1674,15.8038,-0.8509,29.1425,0
111.9799,112.8785,16.0035,-0.8494,29.4196,0
112.9860,111.6088,16.2197,-0.8475,29.0729,0
114.0064,110.3449,16.4198,-0.8451,29.3140,0
115.0501,109.0481,16.6353,-0.8437,30.2435,0
116.1200,107.7183,16.8506,-0.8415,30.8336,0
117.1572,106.4070,17.0527,-0.8391,29.8194,0
118.1714,105.1334,17.2437,-0.8364,29.0182,0
119.1617,103.9101,17.4505,-0.8343,28.2242,0
120.1810,102.6964,17.6561,-0.8321,28.5876,0
121.2137,101.4328,17.8676,-0.8289,29.3760,0
122.2424,100.1984,18.0624,-0.8266,28.6868,0
123.2807,98.9727,18.2702,-0.8248,28.9059,0
124.3397,97.7292,18.4753,-0.8233,29.6075,0
125.4274,96.4305,18.6891,-0.8201,30.9327,0
126.4833,95.1510,18.8881,-0.8187,29.3918,0
127.4648,93.9407,19.0775,-0.8180,27.6656,0
128.4262,92.8081,19.2808,-0.8186,26.6017,0
129.3937,91.6677,19.4769,-0.8181,27.1780,0
130.3974,90.4688,19.6728,-0.8163,28.3897,0
131.4216,89.2268,19.8660,-0.8115,28.9977,0
132.4617,88.0204,20.0548,-0.8069,28.5246,0
133.4794,86.8286,20.2711,-0.8026,28.1573,0
134.4992,85.6582,20.4693,-0.7976,27.9548,0
135.5213,84.4906,20.6581,-0.7929,27.8825,0
136.5483,83.3333,20.8488,-0.7898,27.8517,0
137.5544,82.1905,21.0573,-0.7903,27.3678,0
138.5676,81.0663,21.2366,-0.7915,27.0917,0
139.5699,79.9301,21.4288,-0.7945,27.3881,0
140.5755,78.8039,21.6531,-0.7997,27.1022,0
141.5625,77.6553,21.8515,-0.8054,27.5596,0
142.5484,76.4956,22.0283,-0.8090,27.1688,0
143.5366,75.3792,22.1976,-0.8139,26.6005,0
144.4661,74.2785,22.3870,-0.8202,25.6835,0
145.4070,73.1627,22.5738,-0.8269,26.3394,0
146.3495,72.0290,22.7638,-0.8322,26.5118,0
147.2868,70.8825,22.9466,-0.8365,26.6214,0
148.2239,69.7471,23.1123,-0.8392,26.2686,0
149.1210,68.6256,23.3019,-0.8397,25.8759,0
150.0056,67.5329,23.4830,-0.8406,25.1377,0
150.9035,66.4400,23.6630,-0.8421,25.5330,0
151.7824,65.3428,23.8375,-0.8429,25.3213,0
152.6396,64.2487,24.0020,-0.8435,24.9088,0
153.4855,63.1902,24.1691,-0.8437,24.3411,0
154.2892,62.1773,24.3260,-0.8439,22.9574,0
155.0661,61.1852,24.4953,-0.8449,22.5776,0
155.8468,60.2109,24.6383,-0.8464,22.4250,0
156.5852,59.2694,24.7819,-0.8472,21.2542,0
157.2781,58.3640,24.9188,-0.8481,20.1132,0
157.9369,57.5153,25.0478,-0.8491,18.9838,0
158.5888,56.7094,25.1815,-0.8500,18.7851,0
159.2360,55.9126,25.3092,-0.8512,18.1640,0
160.0971,54.7900,25.4701,-0.8515,16.3926,0
160.9046,53.7774,25.6454,-0.8528,15.1048,0
161.6088,52.8567,25.7764,-0.8530,13.1904,0
162.2635,52.0382,25.8963,-0.8539,12.4258,0
162.9820,51.1091,26.0403,-0.8550,9.5397,0
163.6826,50.2204,26.1798,-0.8553,6.9737,0
164.3596,49.3749,26.3178,-0.8497,6.9327,0
165.0923,48.4743,26.4732,-0.8257,7.9554,0
165.7453,47.7060,26.6034,-0.7903,9.7562,0
166.5686,46.8170,26.7738,-0.7386,11.2944,0
167.5350,45.8884,26.9605,-0.6717,12.8041,0
168.4149,45.1371,27.1291,-0.6105,14.7380,0
169.4375,44.3705,27.2999,-0.5387,15.5211,0
170.4949,43.6726,27.4872,-0.4671,15.0268,0
171.6099,43.0835,27.6580,-0.3889,15.5855,0
172.8105,42.5272,27.8375,-0.3048,16.0451,0
174.0490,42.0848,28.0504,-0.2212,15.4618,0
175.2737,41.8003,28.2389,-0.1398,15.1992,0
176.5318,41.5820,28.3815,-0.0561,15.5734,0
177.8355,41.4752,28.5447,0.0283,15.6314,0
179.1382,41.5215,28.7103,0.1111,15.5501,0
180.4271,41.6101,28.8891,0.1964,15.6576,0
181.7122,41.8213,28.9446,0.2815,15.4523,0
182.9259,42.1687,29.1244,0.3621,14.7415,0
184.0940,42.5317,29.3332,0.4243,14.9179,0
185.2628,43.0683,29.4734,0.4793,15.4761,0
186.4321,43.6510,29.5955,0.5217,15.7004,0
187.6045,44.2138,29.7105,0.5472,15.7497,0
188.7691,44.8600,29.8480,0.5592,15.7562,0
189.9271,45.5238,29.9824,0.5528,16.3651,0
191.1306,46.1762,30.0830,0.5369,16.1804,0
192.3243,46.8102,30.1845,0.5142,16.2881,0
193.5662,47.3926,30.2992,0.4776,16.4120,0
194.8531,47.9773,30.4111,0.4289,17.3015,0
196.1904,48.4998,30.5329,0.3683,17.1902,0
197.5899,49.0193,30.6268,0.2977,17.9343,0
198.9720,49.3377,30.7556,0.2307,16.2399,0
200.3286,49.5542,30.8874,0.1631,16.5066,0
201.6757,49.6561,30.9941,0.0933,16.1004,0
202.9760,49.7189,31.1244,0.0228,15.4708,0
204.2944,49.6716,31.2601,-0.0499,15.8212,0
205.5463,49.4899,31.3785,-0.1225,14.9473,0
206.7861,49.2786,31.5003,-0.1959,15.7662,0
208.0168,48.9251,31.6118,-0.2654,14.3591,0
209.0579,48.5719,31.7076,-0.3225,12.8712,0
210.2738,48.0524,31.8249,-0.3814,11.7178,0
211.4208,47.4610,31.9220,-0.3909,11.1812,0
212.5181,46.9916,32.0511,-0.3532,10.2766,0
213.6147,46.5434,32.1693,-0.2799,11.0486,0
214.7972,46.2117,32.2973,-0.1733,11.5052,0
215.8442,46.1047,32.3949,-0.0695,12.2321,0
217.1367,46.0263,32.5475,0.0835,11.7795,0
218.4296,46.1236,32.7190,0.2581,11.2630,0
219.6429,46.4626,32.8557,0.4468,11.0422,0
220.7109,46.9892,33.0149,0.6371,10.4697,0
221.6167,47.7063,33.1102,0.8244,10.5660,0
222.3375,48.5092,33.1801,1.0082,9.5679,0
222.9051,49.4554,33.2322,1.1896,9.6900,0
223.2848,50.5021,33.2662,1.3745,10.5291,0
223.4501,51.6966,33.2557,1.5715,10.7126,0
223.3687,52.9167,33.1999,1.7867,11.5437,0
223.1584,53.9454,33.1485,1.9566,12.7631,0
222.7258,54.9264,33.0445,2.1323,12.8871,0
222.2103,55.8430,32.9645,2.3135,12.5217,0
221.4540,56.5230,32.7956,2.4906,12.5893,0
220.5491,57.2177,32.6729,2.6576,14.2210,0
219.4951,57.7720,32.4644,2.8157,14.0372,0
218.3414,58.1481,32.2825,2.9552,15.0527,0
217.0649,58.4506,32.1424,3.0838,16.1488,0
215.7157,58.5375,31.9566,-3.0785,16.2838,0
214.3343,58.4522,31.7847,-2.9743,16.8182,0
212.8793,58.2602,31.6445,-2.8926,17.9668,0
211.4358,57.9082,31.4943,-2.8333,17.9354,0
210.4706,57.6431,31.3926,-2.8053,17.9654,0
209.5069,57.3446,31.3097,-2.7833,18.0920,0
208.5490,57.0354,31.2252,-2.7667,18.0524,0
207.1444,56.5412,31.1065,-2.7503,17.8339,0
205.7659,55.9973,31.0062,-2.7462,17.6451,0
204.3847,55.5000,30.9057,-2.7534,17.5901,0
203.0296,55.0372,30.8337,-2.7663,16.7431,0
201.7278,54.6014,30.7124,-2.7777,16.2801,0
200.4417,54.1993,30.6659,-2.7883,15.7219,0
199.2196,53.8368,30.5850,-2.7868,14.9488,0
198.0315,53.4844,30.4777,-2.7756,14.5992,0
196.9206,53.0938,30.3920,-2.7577,13.5882,0
195.8377,52.7237,30.3312,-2.7365,13.5168,0
194.8071,52.3185,30.2429,-2.7128,12.7897,0
193.8837,51.9301,30.1639,-2.6924,11.6597,0
192.7121,51.4520,30.0693,-2.6669,11.0077,0
191.6737,50.9563,29.9769,-2.6437,9.8903,0
190.5965,50.4478,29.8986,-2.6203,7.7492,0
189.6320,49.9777,29.8104,-2.5986,4.0766,0
188.7238,49.4577,29.7266,-2.5771,3.3257,0
187.7245,48.9039,29.6186,-2.5552,7.0265,0
186.7448,48.3505,29.5219,-2.5380,8.4046,0
185.7234,47.7029,29.4056,-2.5214,8.8487,0
184.7912,47.1277,29.2871,-2.5054,10.6768,0
183.7184,46.4146,29.1684,-2.4833,12.2127,0
182.8223,45.7934,29.0506,-2.4672,13.1663,0
181.8532,45.0970,28.9316,-2.4501,14.9652,0
180.8517,44.3311,28.8221,-2.4348,15.2011,0
179.8121,43.5243,28.6661,-2.4229,16.2625,0
178.7437,42.6631,28.5625,-2.4086,16.4481,0
177.6494,41.7324,28.5089,-2.4028,17.3956,0
176.5034,40.7877,28.4192,-2.3990,17.9588,0
175.6891,40.1204,28.3296,-2.3969,19.0407,0
174.8740,39.4286,28.2746,-2.3964,19.4624,0
174.0267,38.7267,28.2332,-2.3942,19.8258,0
173.1890,38.0005,28.1069,-2.3902,20.1189,0
172.2982,37.2818,27.9771,-2.3886,20.6902,0
171.4030,36.5293,27.8631,-2.3860,21.1806,0
170.5082,35.7214,27.7151,-2.3855,21.7533,0
169.5617,34.9179,27.5520,-2.3864,22.6134,0
168.5920,34.0940,27.4073,-2.3882,22.7220,0
167.6515,33.2903,27.2526,-2.3898,22.3648,0
166.6663,32.4803,27.0916,-2.3898,22.9263,0
165.6973,31.6326,26.9396,-2.3901,23.3428,0
164.7130,30.7638,26.7769,-2.3908,23.5234,0
163.7019,29.9213,26.6247,-2.3908,23.7232,0
162.6849,29.0802,26.4821,-2.3898,23.5771,0
161.6919,28.2323,26.3512,-2.3887,23.5718,0
160.6725,27.3788,26.1762,-2.3887,24.2165,0
159.6198,26.5052,26.0286,-2.3896,24.6504,0
158.5983,25.6161,25.8885,-2.3900,24.1838,0
157.5714,24.7507,25.7349,-2.3908,24.1859,0
156.5375,23.8930,25.5914,-2.3920,24.1400,0
155.4846,23.0319,25.4401,-2.3944,24.2357,0
154.4399,22.1883,25.2906,-2.3971,24.1373,0
153.4225,21.3530,25.1250,-2.3997,23.4372,0
152.4075,20.5342,24.9996,-2.4026,23.2639,0
151.3596,19.6998,24.8421,-2.4071,24.3688,0
150.3129,18.8663,24.6659,-2.4117,24.0148,0
149.2711,18.0434,24.5170,-2.4157,23.7378,0
148.2231,17.2127,24.3705,-2.4191,24.1166,0
147.1432,16.3795,24.2069,-2.4242,24.4797,0
146.0794,15.5514,24.0272,-2.4291,24.3272,0
145.0074,14.7185,23.8783,-2.4325,24.4236,0
143.9218,13.8887,23.6989,-2.4369,24.6558,0
142.7975,13.0687,23.5125,-2.4417,24.9038,0
141.6720,12.2599,23.3398,-2.4458,25.1251,0
140.5442,11.4426,23.1848,-2.4503,24.8974,0
139.4610,10.6407,23.0106,-2.4576,24.0494,0
138.3818,9.8369,22.7997,-2.4653,24.3865,0
137.2884,9.0677,22.6643,-2.4725,23.8628,0
136.1970,8.3406,22.5311,-2.4804,23.4853,0
135.0946,7.5959,22.3520,-2.4886,24.1391,0
133.9877,6.8232,22.1707,-2.4984,24.1961,0
132.8796,6.1040,22.0183,-2.5097,23.6327,0
131.7679,5.3875,21.8582,-2.5198,23.8939,0
130.6529,4.6875,21.6756,-2.5314,23.6652,0
129.5278,4.0120,21.5090,-2.5417,23.6236,0
128.3803,3.3238,21.3368,-2.5522,24.2895,0
127.1885,2.5972,21.1615,-2.5624,25.2560,0
125.9836,1.8971,20.9632,-2.5702,24.9794,0
124.7671,1.2201,20.7742,-2.5782,24.8843,0
123.5953,0.5742,20.6041,-2.5888,23.7981,0
122.4257,-0.0609,20.4262,-2.6005,24.2212,0
121.2275,-0.6877,20.2263,-2.6128,24.4009,0
120.0293,-1.2986,20.0578,-2.6244,23.9350,0
118.8889,-1.8879,19.9090,-2.6394,22.9794,0
117.7242,-2.4442,19.7163,-2.6562,23.4145,0
116.5125,-3.0019,19.5228,-2.6739,23.9910,0
115.2978,-3.5262,19.3383,-2.6934,23.8052,0
114.0696,-4.0347,19.1617,-2.7148,23.8558,0
112.8637,-4.5031,18.9690,-2.7371,23.3715,0
111.6272,-4.9573,18.7774,-2.7607,23.6778,0
110.3287,-5.3823,18.5841,-2.7840,24.6275,0
109.0223,-5.7680,18.3860,-2.8075,24.6302,0
107.6976,-6.1317,18.1788,-2.8308,25.0248,0
106.3462,-6.4796,17.9807,-2.8555,24.9683,0
105.0110,-6.7847,17.7519,-2.8799,24.9222,0
103.6568,-7.0642,17.5483,-2.9019,24.9326,0
102.2879,-7.3187,17.3376,-2.9199,25.3644,0
100.8501,-7.5488,17.1112,-2.9286,26.6118,0
99.3919,-7.7812,16.8838,-2.9333,26.6329,0
97.9387,-8.0117,16.6566,-2.9370,26.5772,0
96.5451,-8.2164,16.4252,-2.9384,25.3336,0
95.1629,-8.4265,16.2083,-2.9388,25.1735,0
93.7383,-8.6402,15.9824,-2.9412,26.3693,0
92.2707,-8.8531,15.7520,-2.9454,26.9312,0
90.7971,-9.0653,15.5087,-2.9489,27.0014,0
89.3664,-9.2604,15.2829,-2.9512,25.6756,0
87.9872,-9.4646,15.0484,-2.9544,25.1289,0
86.6063,-9.6392,14.8178,-2.9560,25.0715,0
85.1926,-9.8283,14.5895,-2.9560,25.9363,0
83.7778,-10.0285,14.3651,-2.9562,26.0327,0
82.3369,-10.1981,14.1426,-2.9580,26.1805,0
80.9405,-10.3869,13.9022,-2.9593,25.4333,0
79.5179,-10.5673,13.6813,-2.9617,25.9458,0
78.0642,-10.7369,13.4378,-2.9631,26.4973,0
76.6462,-10.9394,13.2127,-2.9647,25.7972,0
75.2400,-11.1180,12.9908,-2.9654,25.7622,0
73.8115,-11.2861,12.7938,-2.9665,26.2838,0
72.3552,-11.4931,12.5387,-2.9679,26.6272,0
70.8823,-11.7087,12.3015,-2.9690,26.8566,0
69.3494,-11.9065,12.0225,-2.9692,28.4179,0
67.8054,-12.0772,11.7816,-2.9697,27.8489,0
66.3295,-12.2432,11.5406,-2.9705,26.2870,0
64.9649,-12.3940,11.3324,-2.9702,24.3660,0
63.6428,-12.5576,11.1295,-2.9698,24.0886,0
62.2715,-12.7159,10.9019,-2.9707,25.2495,0
60.8522,-12.8694,10.6808,-2.9703,25.9315,0
59.4083,-13.0381,10.4422,-2.9702,26.3531,0
57.9863,-13.2327,10.1923,-2.9706,26.0579,0
56.5801,-13.3997,9.9556,-2.9710,25.5018,0
55.1957,-13.5566,9.7236,-2.9713,25.2303,0
53.8412,-13.7192,9.4887,-2.9722,24.3696,0
52.4835,-13.8783,9.2653,-2.9730,25.0343,0
51.0862,-14.0404,9.0176,-2.9741,25.5924,0
49.6986,-14.1979,8.7729,-2.9760,25.0522,0
48.3582,-14.3519,8.5487,-2.9769,24.3154,0
47.0539,-14.4752,8.3085,-2.9786,23.3740,0
45.7600,-14.6282,8.0713,-2.9809,23.6571,0
44.5019,-14.7483,7.8544,-2.9833,22.6634,0
43.3294,-14.8735,7.6558,-2.9852,21.0772,0
42.1907,-15.0134,7.4579,-2.9858,20.6240,0
41.0888,-15.1269,7.2543,-2.9864,19.8506,0
40.0333,-15.2385,7.0782,-2.9899,18.7679,0
39.0272,-15.3289,6.9105,-2.9954,18.0764,0
37.5750,-15.4489,6.6522,-3.0090,17.1114,0
36.2864,-15.5605,6.4207,-3.0281,15.2130,0
35.0185,-15.6152,6.2174,-3.0575,15.1678,0
33.7506,-15.6441,5.9606,-3.0983,15.8729,0
32.4664,-15.6098,5.7334,3.1305,15.1156,0
31.2678,-15.4913,5.5140,3.0689,14.6874,0
30.0184,-15.3210,5.2715,2.9965,16.0334,0
28.8329,-15.0782,5.0379,2.9209,14.4449,0
27.6792,-14.7175,4.8299,2.8322,14.6798,0
26.5555,-14.2102,4.5884,2.7404,14.7742,0
25.5951,-13.7019,4.4069,2.6458,13.0893,0
24.5983,-13.0903,4.3222,2.5563,13.7955,0
23.7603,-12.4145,4.1156,2.4769,13.0133,0
22.9322,-11.7109,3.9210,2.3905,12.9965,0
22.1848,-10.9208,3.8643,2.3068,13.0310,0
21.5108,-10.0806,3.7251,2.2302,13.2549,0
20.8010,-9.1515,3.6078,2.1497,13.8796,0
20.2381,-8.1912,3.4862,2.0835,13.3268,0
19.7073,-7.2406,3.4130,2.0340,12.8023,0
19.2868,-6.2611,3.3159,2.0018,12.7406,0
18.9136,-5.2802,3.2240,1.9998,12.5065,0
18.4947,-4.3715,3.1292,2.0199,11.6277,0
17.9865,-3.2292,3.0431,2.0777,10.6742,0
17.3723,-2.0915,2.9377,2.1601,11.6769,0
16.7343,-1.1230,2.8100,2.2619,10.0258,0
15.9672,-0.1786,2.6797,2.3790,10.6648,0
15.1267,0.5973,2.5269,2.4997,9.9696,0
14.2125,1.2806,2.3773,2.6237,11.0218,0
13.2414,1.8380,2.2159,2.7484,9.7083,0
12.1728,2.2716,2.0044,2.8705,9.8255,0
11.0695,2.5542,1.8326,2.9894,10.5124,0
9.9565,2.7104,1.6400,3.1039,9.9726,0
8.7528,2.7301,1.4195,-3.0605,7.6837,0
7.7246,2.6430,1.2210,-2.9616,5.0533,0
6.7180,2.4313,1.0179,-2.8673,2.0212,0
7.7173,2.6521,1.2056,-2.8574,3.7542,0
8.7370,2.9067,1.3893,-2.7690,4.3498,0
9.6980,3.2945,1.6028,-2.6173,4.8056,0
10.5670,3.8163,1.7502,-2.4394,5.0587,0
11.3091,4.5611,1.8961,-2.2273,5.1129,0
11.9380,5.3942,1.9957,-2.0246,3.8644,0
11.5878,4.3669,1.9068,-1.8754,3.8716,0
11.2743,3.4085,1.8612,-1.7554,4.5747,0
11.0952,2.3859,1.8360,-1.5879,5.6290,0
11.0698,1.3065,1.8106,-1.4146,6.7984,0
11.2418,0.2985,1.8272,-1.2652,7.4951,0
11.4994,-0.7192,1.8515,-1.1551,7.9985,0
11.8806,-1.6747,1.8764,-1.0771,7.2632,0
12.3723,-2.6537,1.9729,-1.0171,7.6585,0
12.8736,-3.5986,2.0369,-0.9882,7.4147,0
13.3946,-4.5102,2.1287,-0.9979,7.6266,0
13.8550,-5.4405,2.2002,-1.0402,7.3606,0
14.3234,-6.4656,2.2820,-1.1121,6.3697,0
14.7176,-7.3891,2.3590,-1.1754,4.8917,0
15.0398,-8.3950,2.4188,-1.2436,3.0353,0
15.2660,-9.4739,2.4666,-1.2693,4.2140,0
15.5388,-10.5102,2.5398,-1.2336,6.9006,0
15.8961,-11.6582,2.6110,-1.1584,8.1354,0
16.3596,-12.7754,2.7394,-1.0607,9.9663,0
16.8268,-13.7368,2.8264,-0.9600,9.6893,0
17.5198,-14.6924,2.9610,-0.8440,10.7622,0
18.3475,-15.6242,3.1073,-0.7236,11.3598,0
19.2426,-16.4908,3.3712,-0.5955,12.0432,0
20.0761,-17.0722,3.5307,-0.4938,12.1138,0
20.9976,-17.5884,3.7232,-0.3952,13.2816,0
21.9810,-18.0380,3.8972,-0.3020,13.1770,0
23.0422,-18.4230,4.0921,-0.2195,14.2094,0
24.1975,-18.7230,4.3240,-0.1476,14.7620,0
25.4383,-18.9420,4.5444,-0.0919,15.3303,0
26.7083,-19.1292,4.7891,-0.0472,15.6726,0
28.0447,-19.2499,5.0436,0.0026,16.6583,0
29.4634,-19.2915,5.2951,0.0486,17.3091,0
30.8852,-19.2951,5.5641,0.0849,17.4942,0
32.3625,-19.2566,5.8294,0.1110,17.9972,0
33.3780,-19.1779,5.9842,0.1235,18.4469,0
34.4045,-19.1065,6.1788,0.1371,18.8506,0
35.4306,-19.0172,6.3742,0.1477,18.7960,0
36.4786,-18.9211,6.5586,0.1569,19.2370,0
37.5215,-18.8065,6.7272,0.1606,18.8259,0
38.5651,-18.6999,6.9061,0.1631,19.1102,0
39.6550,-18.5959,7.0981,0.1657,20.2547,0
40.7681,-18.4469,7.2758,0.1666,19.9102,0
41.8593,-18.3143,7.4722,0.1672,20.1373,0
42.9934,-18.1985,7.6577,0.1699,20.8218,0
44.1496,-18.0550,7.8551,0.1706,21.1787,0
45.3047,-17.9187,8.0722,0.1739,21.1190,0
46.4805,-17.7845,8.2845,0.1747,21.5355,0
47.7078,-17.6242,8.5010,0.1719,22.5750,0
48.9823,-17.4745,8.7326,0.1680,23.2037,0
50.2117,-17.3280,8.9466,0.1634,22.3039,0
51.3817,-17.1919,9.1421,0.1597,21.2833,0
52.5519,-17.0647,9.3344,0.1568,21.1093,0
53.6987,-16.9449,9.5221,0.1558,20.8091,0
54.8820,-16.8081,9.7280,0.1571,21.6881,0
56.0846,-16.6654,9.9382,0.1583,21.8777,0
57.3258,-16.5321,10.1499,0.1593,22.7434,0
58.5790,-16.4180,10.3642,0.1606,22.5583,0
59.8373,-16.2804,10.5666,0.1619,23.0427,0
61.1167,-16.1265,10.7877,0.1619,23.2929,0
62.3916,-15.9822,11.0065,0.1628,23.1522,0
63.6319,-15.8468,11.1995,0.1639,22.2822,0
64.8779,-15.6892,11.3898,0.1654,22.7903,0
66.1408,-15.5166,11.6026,0.1661,23.2317,0
67.4232,-15.3606,11.8018,0.1655,23.2574,0
68.7475,-15.1993,12.0303,0.1660,24.3055,0
70.0644,-15.0604,12.2309,0.1664,23.7156,0
71.3304,-14.9342,12.4562,0.1689,22.8517,0
72.5715,-14.7758,12.6623,0.1703,22.6671,0
73.8518,-14.6163,12.8620,0.1718,23.4770,0
75.1400,-14.4600,13.0609,0.1722,23.4298,0
76.4031,-14.3006,13.2808,0.1731,22.8913,0
77.6623,-14.1325,13.4589,0.1745,23.0469,0
78.9351,-13.9732,13.6749,0.1756,23.4198,0
80.2199,-13.7951,13.8867,0.1778,23.4532,0
81.4858,-13.6201,14.1069,0.1800,23.0941,0
82.7667,-13.4653,14.3025,0.1819,23.2704,0
84.0014,-13.3043,14.5098,0.1831,22.3928,0
85.2391,-13.1288,14.7235,0.1850,22.6893,0
86.4864,-12.9694,14.9301,0.1876,22.6461,0
87.7144,-12.7977,15.1331,0.1905,22.4338,0
88.9299,-12.6227,15.3342,0.1933,22.1295,0
90.1483,-12.4436,15.5522,0.1955,22.3635,0
91.3767,-12.2543,15.7476,0.1969,22.5185,0
92.6034,-12.0992,15.9432,0.1990,22.4346,0
93.7808,-11.9134,16.1441,0.1993,21.4198,0
94.9633,-11.7055,16.3563,0.2004,21.7568,0
96.1767,-11.5225,16.5378,0.2017,22.1489,0
97.3949,-11.3486,16.7384,0.2035,22.4020,0
98.5916,-11.1463,16.9333,0.2049,21.7870,0
99.7763,-10.9387,17.1277,0.2075,21.7570,0
100.9689,-10.7538,17.3147,0.2136,21.8882,0
102.1530,-10.5404,17.5037,0.2214,21.7363,0
103.3322,-10.3304,17.7089,0.2304,21.9025,0
104.5205,-10.1300,17.8905,0.2423,21.6749,0
105.6774,-9.9009,18.0899,0.2538,21.1304,0
106.8244,-9.6374,18.2745,0.2666,21.4340,0
108.0135,-9.3756,18.4599,0.2840,22.2121,0
109.1865,-9.0970,18.6397,0.3012,21.6460,0
110.3252,-8.7963,18.8161,0.3188,21.2787,0
111.4837,-8.4751,18.9987,0.3372,22.0831,0
112.6857,-8.1008,19.1975,0.3565,22.5188,0
113.8279,-7.7374,19.3720,0.3766,21.3021,0
114.9101,-7.3631,19.5412,0.3978,20.6588,0
116.0300,-6.9618,19.7131,0.4195,21.7921,0
117.1528,-6.5228,19.8471,0.4400,21.7180,0
118.2436,-6.0533,20.0381,0.4601,21.3175,0
119.3143,-5.5759,20.1926,0.4804,21.0885,0
120.4177,-5.0567,20.3507,0.4994,22.1716,0
121.4835,-4.5448,20.5168,0.5164,21.1416,0
122.5273,-3.9973,20.6840,0.5316,21.3042,0
123.5664,-3.4422,20.8162,0.5447,20.9291,0
124.6008,-2.8541,20.9775,0.5563,21.3764,0
125.6379,-2.2581,21.1226,0.5673,21.5668,0
126.6750,-1.6701,21.2692,0.5780,21.3949,0
127.7013,-1.0460,21.4341,0.5861,21.8191,0
128.7143,-0.4194,21.6004,0.5926,21.4426,0
129.7219,0.2116,21.7419,0.5997,21.4686,0
130.7304,0.8355,21.8737,0.6055,21.2019,0
131.7021,1.4633,22.0342,0.6089,20.6914,0
132.6687,2.0891,22.2057,0.6127,20.7982,0
133.6629,2.7327,22.3443,0.6182,21.1949,0
134.6348,3.3740,22.4752,0.6238,20.7739,0
135.5744,4.0247,22.6127,0.6287,20.6287,0
136.5312,4.6546,22.7590,0.6339,20.6645,0
137.4566,5.2925,22.9003,0.6380,20.2069,0
138.3797,5.9246,23.0306,0.6422,20.0024,0
139.3245,6.5742,23.1654,0.6468,20.7737,0
140.2572,7.2285,23.3229,0.6513,20.4406,0
141.1721,7.8826,23.4649,0.6559,20.2170,0
142.0937,8.5263,23.5893,0.6609,20.1572,0
142.9963,9.1803,23.7274,0.6678,19.9382,0
143.8788,9.8277,23.8615,0.6746,19.6786,0
144.7802,10.4898,23.9850,0.6811,20.1575,0
145.6501,11.1391,24.1267,0.6865,19.4908,0
146.5002,11.7876,24.2573,0.6913,19.1867,0
147.3363,12.4252,24.3686,0.6968,18.9717,0
148.1421,13.0641,24.4927,0.7012,18.5636,0
148.9484,13.6769,24.6371,0.7059,18.1871,0
149.7615,14.3010,24.7398,0.7105,18.5870,0
150.5471,14.9368,24.8267,0.7131,18.1212,0
151.6933,15.8535,24.9949,0.7181,17.2142,0
152.8037,16.7489,25.1832,0.7205,17.0420,0
153.8950,17.6414,25.3236,0.7226,16.5251,0
154.9431,18.4809,25.4703,0.7258,15.6595,0
155.9104,19.2783,25.6009,0.7275,14.5239,0
156.8038,20.0075,25.7481,0.7289,13.3825,0
157.5949,20.6690,25.8487,0.7293,11.8009,0
158.4907,21.4118,25.9819,0.7304,9.9607,0
159.2844,22.0577,26.0955,0.7310,8.8276,0
160.1817,22.8116,26.2182,0.7318,8.2614,0
160.9719,23.4483,26.3230,0.7327,6.4760,0
161.7954,24.1249,26.4364,0.7333,3.4517,0
162.6040,24.8320,26.5597,0.7273,2.8699,0
163.4125,25.4766,26.6794,0.6852,5.0843,0
164.2700,26.0520,26.8056,0.6175,6.7749,0
165.1564,26.5625,26.9353,0.5384,7.6034,0
166.1534,27.0022,27.1063,0.4391,8.3875,0
167.2923,27.4031,27.2644,0.3333,9.2133,0
168.3449,27.6821,27.4487,0.2450,9.8895,0
169.5207,27.8552,27.6454,0.1609,10.8728,0
170.7220,27.9547,27.8498,0.0702,11.3566,0
171.7467,27.9527,28.0198,0.0034,12.5221,0
172.7883,27.8579,28.1993,-0.0681,12.6985,0
173.8673,27.6689,28.3886,-0.1437,13.5809,0
174.9994,27.4164,28.5990,-0.2211,14.1740,0
176.1623,27.0687,28.7847,-0.2987,14.6656,0
177.3231,26.6046,29.0032,-0.3725,15.6303,0
178.5268,26.0437,29.2089,-0.4458,15.9104,0
179.7094,25.3804,29.4357,-0.5159,16.7669,0
180.9279,24.5652,29.6820,-0.5782,17.8961,0
181.7537,23.9667,29.8372,-0.6190,18.6496,0
182.5642,23.3149,29.9802,-0.6542,18.8743,0
183.3923,22.6127,30.1519,-0.6852,19.8815,0
184.2376,21.8431,30.2966,-0.7122,20.5885,0
185.0815,21.0433,30.4391,-0.7347,20.9110,0
185.9295,20.2177,30.6066,-0.7523,21.4922,0
186.7790,19.3394,30.7661,-0.7665,22.2179,0
187.6185,18.4066,30.9288,-0.7773,22.6860,0
188.4873,17.4467,31.0971,-0.7853,23.2458,0
189.3481,16.4876,31.2608,-0.7935,23.0890,0
190.1852,15.5268,31.4227,-0.8023,22.9563,0
191.0450,14.5438,31.5684,-0.8111,23.6333,0
191.9184,13.5184,31.7442,-0.8182,24.4787,0
192.8255,12.4335,31.9103,-0.8220,25.6656,0
193.7585,11.2900,32.0726,-0.8243,26.8107,0
194.6794,10.1627,32.2664,-0.8232,25.7812,0
195.5652,9.0951,32.4409,-0.8232,24.7814,0
196.4598,8.0310,32.6140,-0.8237,25.1227,0
197.3829,6.9252,32.7996,-0.8254,26.3190,0
198.3344,5.7769,32.9699,-0.8273,27.1334,0
199.2708,4.6197,33.1665,-0.8293,26.4903,0
200.2202,3.4619,33.3567,-0.8328,27.0226,0
201.1711,2.3003,33.5364,-0.8353,27.0763,0
202.1240,1.1093,33.7229,-0.8379,27.6740,0
203.1301,-0.1381,33.9003,-0.8430,29.0679,0
204.1574,-1.4447,34.1174,-0.8449,29.9901,0
205.1618,-2.7029,34.3018,-0.8444,28.6152,0
206.1322,-3.9247,34.4891,-0.8437,27.7747,0
207.0976,-5.1379,34.6591,-0.8444,27.8561,0
208.0818,-6.3771,34.8529,-0.8443,28.5110,0
209.0860,-7.6444,35.0385,-0.8435,29.2428,0
210.0904,-8.9214,35.2432,-0.8431,29.3135,0
211.1065,-10.1941,35.4418,-0.8424,29.1287,0
212.1081,-11.4524,35.6224,-0.8419,28.6308,0
213.0999,-12.6909,35.8094,-0.8418,28.5008,0
214.1025,-13.9464,36.0082,-0.8415,29.0397,0
215.1720,-15.2908,36.1975,-0.8407,31.2786,0
216.2720,-16.6875,36.4091,-0.8401,31.9608,0
217.3830,-18.0659,36.6164,-0.8401,31.7761,0
218.4694,-19.4324,36.8104,-0.8403,31.0794,0
219.5114,-20.7420,36.9966,-0.8396,29.5910,0
220.5136,-22.0029,37.1935,-0.8393,29.0355,0
221.5385,-23.2827,37.3883,-0.8397,29.7312,0
222.5916,-24.5856,37.5744,-0.8403,30.3629,0
223.6288,-25.8981,37.7652,-0.8404,30.1425,0
224.6864,-27.2213,37.9759,-0.8410,30.5760,0
225.7426,-28.5449,38.1836,-0.8412,30.6205,0
226.8099,-29.8808,38.3720,-0.8422,30.7754,0
227.8583,-31.2090,38.5822,-0.8432,30.5478,0
228.9258,-32.5440,38.7752,-0.8442,30.6851,0
229.9688,-33.8516,38.9784,-0.8443,29.9389,0
230.9841,-35.1231,39.1820,-0.8447,29.1679,0
231.9719,-36.3645,39.3689,-0.8450,28.2501,0
232.9271,-37.5752,39.5489,-0.8453,27.6701,0
233.8772,-38.7750,39.7274,-0.8448,27.4281,0
234.8303,-39.9802,39.9026,-0.8450,27.7157,0
235.8214,-41.2107,40.0960,-0.8453,28.7324,0
236.8500,-42.5100,40.3367,-0.8447,30.3558,0
237.9600,-43.9000,40.5389,-0.8446,32.5757,0
239.1190,-45.3702,40.7651,-0.8441,33.8965,0
240.2509,-46.8114,40.9857,-0.8431,32.6433,0
241.3437,-48.1646,41.2215,-0.8427,30.9328,0
242.4109,-49.4842,41.4447,-0.8426,30.4213,0
243.4575,-50.8071,41.6723,-0.8424,30.4006,0
244.4865,-52.1076,41.8845,-0.8415,29.8289,0
245.5506,-53.4454,42.0901,-0.8405,31.1371,0
246.6712,-54.8379,42.3133,-0.8404,32.3547,0
247.7735,-56.2245,42.5504,-0.8395,31.8079,0
248.8687,-57.6036,42.7658,-0.8388,31.5842,0
249.9433,-58.9239,42.9849,-0.8393,30.2683,0
250.9928,-60.2231,43.2056,-0.8387,30.1527,0
252.0573,-61.5680,43.4297,-0.8376,31.2647,0
253.1580,-62.9053,43.6768,-0.8372,31.3935,0
254.2547,-64.2734,43.8988,-0.8373,31.6211,0
255.3400,-65.6224,44.1219,-0.8374,30.8236,0
256.4144,-66.9392,44.3549,-0.8380,30.8091,0
257.5406,-68.3033,44.6128,-0.8417,32.1596,0
258.6602,-69.6780,44.8451,-0.8474,31.8098,0
259.7150,-70.9948,45.0888,-0.8531,30.0382,0
260.7074,-72.2658,45.2900,-0.8571,28.4245,0
261.6622,-73.4990,45.4944,-0.8610,27.9233,0
262.6192,-74.7457,45.6895,-0.8669,28.3143,0
263.5974,-76.0241,45.9136,-0.8784,28.8556,0
264.5394,-77.3021,46.1323,-0.8966,28.4218,0
265.4373,-78.5439,46.3213,-0.9159,27.2925,0
266.2755,-79.7661,46.5278,-0.9323,26.3508,0
267.0701,-80.9636,46.7342,-0.9488,25.9009,0
267.8297,-82.1552,46.9117,-0.9661,25.3840,0
268.5487,-83.3480,47.0863,-0.9817,24.9054,0
269.2355,-84.5395,47.2563,-0.9977,24.7503,0
269.8965,-85.7046,47.4130,-1.0154,24.0605,0
270.5432,-86.9081,47.5818,-1.0325,24.6939,0
271.1939,-88.1387,47.7272,-1.0492,24.9936,0
271.8119,-89.3752,47.8698,-1.0656,24.7781,0
272.3976,-90.5931,48.0329,-1.0787,23.9410,0
272.9622,-91.8293,48.1740,-1.0858,24.3492,0
273.5333,-93.0363,48.3072,-1.0906,23.7940,0
274.0899,-94.2580,48.4732,-1.0914,24.3001,0
274.6514,-95.5077,48.6097,-1.0894,24.6118,0
275.2018,-96.7517,48.7480,-1.0890,24.2281,0
275.7416,-97.9643,48.8829,-1.0898,23.6811,0
276.2560,-99.1423,49.0176,-1.0951,22.8986,0
276.7581,-100.3153,49.1567,-1.1057,22.9813,0
277.2389,-101.4693,49.2841,-1.1156,22.1934,0
277.7110,-102.5671,49.4049,-1.1257,21.2131,0
278.1461,-103.6307,49.5305,-1.1363,20.4148,0
278.5444,-104.6522,49.6586,-1.1458,19.6309,0
278.9413,-105.6521,49.7733,-1.1531,19.0857,0
279.3104,-106.6207,49.8912,-1.1568,18.4873,0
279.8080,-107.9924,50.0393,-1.1522,16.6392,0
280.2596,-109.1975,50.2138,-1.1443,15.2895,0
280.7347,-110.4043,50.3490,-1.1356,15.6106,0
281.2012,-111.5238,50.5041,-1.1137,13.7433,0
281.6287,-112.5478,50.6294,-1.0821,13.3394,0
282.1183,-113.5845,50.7639,-1.0297,13.7769,0
282.5928,-114.5731,50.8983,-0.9622,12.9650,0
283.1782,-115.4462,51.0208,-0.8767,12.9091,0
283.8456,-116.3092,51.1689,-0.7729,12.6776,0
284.6900,-117.1664,51.3731,-0.6147,11.1248,0
285.5277,-117.7612,51.5239,-0.4929,12.7386,0
286.5968,-118.3117,51.7086,-0.3344,9.9688,0
287.6873,-118.6623,51.8268,-0.1613,10.7361,0
288.8481,-118.8589,51.9898,0.0248,9.9405,0
289.8886,-118.7530,52.1380,0.2160,9.2534,0
290.8865,-118.4838,52.2983,0.3975,9.5320,0
291.9621,-118.1029,52.4931,0.6036,8.6063,0
292.9044,-117.3539,52.6634,0.8086,8.2580,0
293.6254,-116.5153,52.8011,0.9929,7.4234,0
294.1990,-115.5712,52.8929,1.1717,5.9649,0
293.9646,-116.5913,52.8671,1.2725,4.5208,0
293.6629,-117.6122,52.8329,1.3146,3.3692,0
293.4020,-118.5817,52.7936,1.3584,1.1303,0
293.6815,-117.5446,52.8295,1.3889,5.5323,0
293.9441,-116.3997,52.8636,1.4847,8.2491,0
294.0349,-115.3262,52.8750,1.5918,10.5672,0
293.9949,-114.0221,52.8228,1.7178,11.9318,0
293.8407,-112.9199,52.7486,1.8292,13.9036,0
293.4930,-111.7097,52.6189,1.9443,15.8400,0
292.9533,-110.3817,52.4615,2.0436,17.6832,0
292.2886,-109.0066,52.2695,2.1192,19.0498,0
291.7523,-108.0543,52.1195,2.1531,19.7976,0
291.1797,-107.0924,51.9924,2.1779,20.0673,0
290.5817,-106.1484,51.8372,2.2013,20.2495,0
289.9240,-105.1766,51.6698,2.2235,21.3856,0
289.2313,-104.2036,51.5033,2.2409,21.6363,0
288.5134,-103.1797,51.3229,2.2505,22.7387,0
287.7574,-102.1586,51.1557,2.2540,22.7605,0
287.0053,-101.1447,50.9841,2.2555,22.8013,0
286.2271,-100.1171,50.7920,2.2559,23.2733,0
285.4402,-99.0360,50.6322,2.2565,24.3917,0
284.6117,-97.9344,50.4374,2.2589,24.7640,0
283.7871,-96.8527,50.2354,2.2615,24.5579,0
282.9703,-95.7616,50.0419,2.2648,24.7154,0
282.1320,-94.6386,49.8583,2.2676,25.3115,0
281.2600,-93.5104,49.6636,2.2692,25.8048,0
280.3850,-92.3778,49.4573,2.2712,25.5983,0
279.5275,-91.2567,49.2670,2.2734,25.6304,0
278.6252,-90.1001,49.0459,2.2764,26.5605,0
277.7225,-88.9322,48.8234,2.2778,26.6422,0
276.8051,-87.7655,48.6233,2.2793,26.7204,0
275.8861,-86.5827,48.4217,2.2826,27.0225,0
274.9662,-85.4044,48.2143,2.2848,26.8240,0
274.0339,-84.2155,48.0061,2.2862,27.2945,0
273.0948,-83.0275,47.8046,2.2866,27.3931,0
272.1482,-81.8206,47.5915,2.2881,27.7093,0
271.1745,-80.5940,47.3666,2.2879,28.3362,0
270.1910,-79.3432,47.1250,2.2867,28.8813,0
269.2010,-78.0830,46.8763,2.2869,29.1647,0
268.1862,-76.8151,46.6587,2.2896,29.1506,0
267.2132,-75.5826,46.4194,2.2922,28.0524,0
266.2637,-74.4147,46.2091,2.2926,27.2015,0
265.3199,-73.2192,46.0112,2.2930,27.6133,0
264.3351,-71.9961,45.8075,2.2930,28.4160,0
263.3126,-70.7375,45.5580,2.2922,29.4249,0
262.2761,-69.4402,45.3364,2.2910,30.1657,0
261.2011,-68.1098,45.1386,2.2903,30.7914,0
260.1212,-66.7557,44.9079,2.2905,31.2776,0
259.0455,-65.4121,44.6561,2.2913,30.8548,0
258.0011,-64.1104,44.4573,2.2916,29.8126,0
256.9691,-62.8295,44.2295,2.2920,29.5899,0
255.9538,-61.5736,44.0126,2.2894,29.0686,0
254.9440,-60.3010,43.8020,2.2879,29.2816,0
253.9257,-59.0086,43.6055,2.2863,29.8483,0
252.8886,-57.7076,43.3782,2.2851,30.1154,0
251.8615,-56.4092,43.1391,2.2835,29.9831,0
250.8271,-55.0849,42.9405,2.2823,30.1440,0
249.8092,-53.7783,42.7344,2.2809,29.6738,0
248.7879,-52.4726,42.5209,2.2797,29.7656,0
247.7548,-51.1569,42.3223,2.2786,30.1526,0
246.7235,-49.8192,42.1357,2.2818,30.2109,0
245.7094,-48.5183,41.9159,2.2849,29.5180,0
244.6881,-47.2316,41.7202,2.2878,29.5296,0
243.6877,-45.9765,41.5238,2.2902,28.7476,0
242.7008,-44.7352,41.3237,2.2914,28.4341,0
241.7077,-43.5150,41.1224,2.2912,28.2555,0
240.7279,-42.2916,40.9241,2.2923,28.4149,0
239.7237,-41.0424,40.7276,2.2931,28.9992,0
238.7236,-39.7804,40.5506,2.2939,28.8338,0
237.6955,-38.4966,40.3608,2.2942,29.7977,0
236.6255,-37.1613,40.1752,2.2952,30.9900,0
235.5389,-35.8141,39.9609,2.2959,31.3876,0
234.4442,-34.4458,39.7484,2.2964,31.5314,0
233.3582,-33.0914,39.5629,2.2972,31.0425,0
232.2791,-31.7558,39.3380,2.2975,30.7289,0
231.2007,-30.4198,39.1333,2.2971,30.9777,0
230.1168,-29.0674,38.9333,2.2978,31.0785,0
229.0420,-27.7398,38.7081,2.2983,30.6529,0
227.9599,-26.4000,38.5085,2.2991,31.1609,0
226.8600,-25.0455,38.2870,2.2986,31.2455,0
225.7456,-23.6741,38.0630,2.2984,31.7178,0
224.6508,-22.3074,37.8689,2.2992,31.4762,0
223.5608,-20.9554,37.6667,2.2990,30.9335,0
222.4888,-19.6412,37.4366,2.2982,30.4021,0
221.4343,-18.3279,37.2535,2.2977,30.0526,0
220.3684,-17.0169,37.0375,2.2967,30.5492,0
219.2948,-15.6719,36.8184,2.2952,30.7380,0
218.2373,-14.3612,36.6317,2.2927,29.9659,0
217.2110,-13.0746,36.4291,2.2903,29.5653,0
216.1960,-11.7909,36.2270,2.2871,29.1900,0
215.1997,-10.5165,36.0448,2.2843,29.1390,0
214.2097,-9.2644,35.8480,2.2819,28.5674,0
213.2385,-8.0237,35.6602,2.2799,28.0358,0
212.2699,-6.7965,35.4621,2.2774,28.0350,0
211.3043,-5.5595,35.2667,2.2749,28.2778,0
210.3676,-4.3359,35.0940,2.2703,27.5226,0
209.4338,-3.1517,34.9222,2.2616,26.9265,0
208.5208,-1.9622,34.7358,2.2455,26.9140,0
207.6345,-0.7364,34.5770,2.2252,27.1688,0
206.7912,0.4893,34.4033,2.2034,26.4455,0
206.0041,1.7119,34.2324,2.1822,25.9354,0
205.2190,2.9644,34.0710,2.1618,26.7636,0
204.4599,4.2272,33.9237,2.1407,26.0128,0
203.7868,5.4859,33.8130,2.1185,25.8817,0
203.1032,6.7627,33.6570,2.1032,26.1843,0
202.4003,8.0846,33.4684,2.0955,27.1420,0
201.6942,9.3873,33.3196,2.0972,26.0426,0
201.0591,10.6038,33.1482,2.1089,24.1915,0
200.4409,11.7343,33.0089,2.1239,22.8738,0
199.8203,12.8634,32.8603,2.1400,23.1704,0
199.1647,13.9848,32.7338,2.1547,23.2582,0
198.5037,15.0765,32.6060,2.1693,22.5403,0
197.8785,16.0825,32.4788,2.1842,20.9437,0
197.2425,17.0442,32.3545,2.1982,20.5893,0
196.6299,17.9752,32.2199,2.2119,19.9681,0
196.0223,18.8771,32.1089,2.2258,19.5483,0
195.3895,19.7575,31.9933,2.2377,19.4805,0
194.7560,20.6258,31.8498,2.2472,18.9907,0
194.1737,21.4573,31.7694,2.2528,18.0757,0
193.3083,22.6544,31.5901,2.2617,17.3054,0
192.5332,23.6863,31.4418,2.2636,14.5827,0
191.8799,24.5481,31.3080,2.2635,11.9392,0
191.1698,25.5119,31.1657,2.2571,10.0059,0
190.5915,26.3291,31.0542,2.2413,8.7627,0
189.9481,27.2980,30.9186,2.1962,8.5382,0
189.3199,28.2980,30.7986,2.1346,8.3264,0
188.7429,29.4003,30.6539,2.0531,9.1011,0
188.3139,30.3316,30.5306,1.9790,9.3175,0
187.9693,31.3716,30.4248,1.8986,10.0350,0
187.6440,32.4772,30.3242,1.8143,10.5617,0
187.4831,33.6763,30.2349,1.7258,11.2387,0
187.3092,34.9574,30.0998,1.6401,11.7921,0
187.3696,36.2088,30.0475,1.5402,11.2814,0
187.4321,37.2530,29.9899,1.4682,13.3833,0
187.5364,38.4126,29.9875,1.4068,13.1636,0
187.8416,39.3852,29.9713,1.3329,12.0607,0
188.2141,40.4590,29.9504,1.2523,14.3871,0
188.6014,41.5600,29.9307,1.1628,13.8816,0
189.1754,42.7245,29.9726,1.0651,15.5457,0
189.8210,43.7402,30.0166,0.9642,13.9662,0
190.6040,44.7148,30.0680,0.8631,14.7294,0
191.5236,45.6736,30.1468,0.7648,16.5073,0
192.5138,46.5546,30.1907,0.6752,15.1719,0
193.5507,47.2565,30.2838,0.5894,15.2604,0
194.7110,47.8893,30.3721,0.5005,16.0982,0
195.9215,48.4438,30.4893,0.4117,15.6509,0
197.1782,48.9055,30.6018,0.3214,16.1337,0
198.5080,49.1755,30.7278,0.2331,16.4760,0
199.9391,49.3888,30.8580,0.1450,17.5629,0
201.2848,49.4069,30.9913,0.0624,15.2465,0
202.4912,49.4283,31.0829,-0.0130,14.0521,0
203.7386,49.3469,31.2092,-0.0878,14.9985,0
204.9435,49.1422,31.3488,-0.1614,14.4451,0
206.1197,48.8278,31.4748,-0.2357,14.5440,0
207.3125,48.4777,31.5894,-0.2939,14.4862,0
208.4233,48.0681,31.6831,-0.3345,14.2372,0
209.4676,47.6190,31.7793,-0.3465,13.3410,0
210.4898,47.2289,31.8772,-0.3323,13.0037,0
211.4642,46.8620,31.9630,-0.2978,12.3427,0
212.4669,46.5495,32.0626,-0.2402,12.3932,0
213.4607,46.3035,32.1627,-0.1619,12.4222,0
214.4900,46.1304,32.2723,-0.0595,12.5305,0
215.5603,46.0346,32.4004,0.0583,12.5576,0
216.6144,46.1032,32.5068,0.1891,12.5168,0
217.6342,46.2655,32.6566,0.3375,12.2122,0
218.5996,46.5843,32.7407,0.4851,12.0260,0
219.7091,47.2466,32.8741,0.6844,11.3160,0
220.6673,48.0634,32.9771,0.8872,10.9936,0
221.4140,49.0181,33.0454,1.0855,11.2724,0
221.9586,50.0902,33.0858,1.2859,10.3895,0
222.3101,51.3287,33.1024,1.4954,11.8290,0
222.3213,52.6359,33.0641,1.7094,11.4869,0
222.1467,53.6252,33.0050,1.8755,12.2910,0
221.8289,54.5998,32.9390,2.0419,11.7655,0
221.2336,55.6720,32.7918,2.2682,10.3313,0
220.3533,56.5400,32.6948,2.4884,12.0531,0
219.5078,57.1685,32.5098,2.6461,12.8206,0
218.5623,57.7030,32.3255,2.7847,13.2989,0
217.5002,58.1237,32.1802,2.9173,13.8366,0
216.3896,58.3799,32.0312,3.0478,13.8353,0
215.1884,58.5304,31.8610,-3.1215,15.1628,0
213.9411,58.5605,31.7346,-3.0269,14.7941,0
212.6781,58.4941,31.5754,-2.9397,15.2328,0
211.3846,58.2794,31.4654,-2.8591,15.5474,0
210.1226,57.9135,31.3145,-2.7926,15.5786,0
208.8998,57.5336,31.2126,-2.7564,15.3541,0
207.7125,57.1394,31.1298,-2.7348,14.8604,0
206.5445,56.6807,31.0381,-2.7244,14.7815,0
205.4188,56.2408,30.9668,-2.7246,14.4003,0
204.2924,55.8367,30.8788,-2.7260,14.1762,0
203.1876,55.4189,30.8191,-2.7315,13.8221,0
202.1004,55.0038,30.7200,-2.7353,13.8966,0
201.0347,54.6402,30.6677,-2.7394,13.3339,0
199.9715,54.2574,30.6265,-2.7395,13.2939,0
198.9749,53.8706,30.5436,-2.7383,12.7583,0
198.0111,53.5169,30.4686,-2.7349,12.1397,0
197.0665,53.1835,30.3992,-2.7288,11.7326,0
195.8967,52.7375,30.3364,-2.7216,10.9456,0
194.7709,52.3010,30.2469,-2.7139,10.6659,0
193.7262,51.8786,30.1442,-2.7060,9.9922,0
192.7579,51.5032,30.0714,-2.6958,8.9236,0
191.7019,51.0434,29.9845,-2.6798,8.0109,0
190.6845,50.5940,29.8849,-2.6622,5.7535,0
189.7209,50.1664,29.8182,-2.6466,3.6266,0
188.7131,49.7079,29.7134,-2.6212,4.4123,0
187.6654,49.1817,29.6121,-2.5723,7.3202,0
186.6355,48.5974,29.5086,-2.5136,8.8842,0
185.7595,48.0218,29.4186,-2.4555,9.4386,0
184.8450,47.3289,29.3157,-2.3850,10.6047,0
183.8874,46.4923,29.1918,-2.3004,11.5814,0
183.1638,45.7421,29.1250,-2.2290,13.0105,0
182.4603,44.8981,29.0233,-2.1533,13.3463,0
181.7845,43.9671,28.9831,-2.0789,13.8874,0
181.1914,42.9438,28.9090,-1.9988,14.3238,0
180.6394,41.8549,28.8320,-1.9134,14.1629,0
180.2294,40.6815,28.8873,-1.8223,14.9760,0
179.9098,39.4601,28.9378,-1.7299,15.1997,0
179.7137,38.1467,29.0017,-1.6379,16.4110,0
179.5891,36.7592,29.0511,-1.5522,16.5429,0
179.5644,35.3426,29.1336,-1.4638,17.2702,0
179.7063,33.8384,29.2283,-1.3760,18.3296,0
179.8924,32.7975,29.3025,-1.3164,19.1874,0
180.1424,31.7126,29.4089,-1.2559,20.2898,0
180.4648,30.6159,29.4740,-1.1949,20.4197,0
180.8221,29.5384,29.5689,-1.1351,20.4727,0
181.2629,28.4650,29.6572,-1.0789,20.9002,0
181.7749,27.4193,29.7803,-1.0289,20.8849,0
182.3040,26.3902,29.8877,-0.9823,20.5402,0
182.8788,25.3767,30.0167,-0.9417,21.0120,0
183.5167,24.3862,30.1136,-0.9123,21.1791,0
184.1959,23.3879,30.2765,-0.8887,21.9919,0
184.9194,22.3647,30.4079,-0.8698,22.4372,0
185.6747,21.3388,30.5319,-0.8545,22.9943,0
186.4536,20.3401,30.7067,-0.8427,23.0776,0
187.2589,19.3432,30.8691,-0.8355,23.0894,0
188.0894,18.3285,31.0172,-0.8324,23.7865,0
188.9357,17.2804,31.1784,-0.8316,24.2073,0
189.7714,16.2465,31.3405,-0.8320,23.8732,0
190.6231,15.1883,31.4947,-0.8327,24.4352,0
191.4975,14.1099,31.6603,-0.8342,25.2236,0
192.4042,12.9984,31.8349,-0.8366,26.0624,0
193.3087,11.8792,31.9943,-0.8398,25.6721,0
194.1864,10.7704,32.1545,-0.8423,25.3058,0
195.0501,9.6628,32.3392,-0.8435,25.3952,0
195.9642,8.5253,32.5186,-0.8460,26.4913,0
196.9140,7.3235,32.7073,-0.8485,27.8330,0
197.8649,6.1097,32.8903,-0.8502,27.3823,0
198.7691,4.9327,33.0859,-0.8503,26.5118,0
199.6803,3.7660,33.2798,-0.8503,26.6782,0
200.5941,2.5996,33.4524,-0.8501,26.7630,0
201.5005,1.4302,33.6147,-0.8491,26.5683,0
202.4442,0.2334,33.7762,-0.8488,27.4655,0
203.4081,-0.9760,33.9779,-0.8470,27.7559,0
204.3483,-2.1776,34.1480,-0.8428,27.1346,0
205.3512,-3.4301,34.3555,-0.8396,29.3284,0
206.4117,-4.7497,34.5443,-0.8364,30.7799,0
207.4840,-6.0951,34.7466,-0.8323,30.7995,0
208.5040,-7.3590,34.9376,-0.8277,28.6785,0
209.4699,-8.5347,35.1237,-0.8245,26.8848,0
210.4203,-9.6660,35.3080,-0.8230,26.8059,0
211.3834,-10.8108,35.4860,-0.8243,26.9307,0
212.3512,-11.9856,35.6840,-0.8257,27.3632,0
213.3319,-13.1622,35.8708,-0.8277,27.7371,0
214.3028,-14.3493,36.0600,-0.8299,27.5129,0
215.2815,-15.5471,36.2364,-0.8324,27.7641,0
216.2534,-16.7402,36.4143,-0.8351,27.6838,0
217.2211,-17.9405,36.5933,-0.8376,27.6579,0
218.2028,-19.1694,36.7541,-0.8406,28.3663,0
219.1530,-20.3646,36.9182,-0.8433,27.1109,0
220.0730,-21.5424,37.0900,-0.8444,26.8087,0
221.0224,-22.7327,37.2657,-0.8441,27.4178,0
222.0014,-23.9638,37.4576,-0.8440,28.5385,0
223.0232,-25.2422,37.6622,-0.8439,29.6336,0
224.0715,-26.5739,37.8424,-0.8423,30.6968,0
225.1255,-27.8974,38.0589,-0.8410,30.2528,0
226.1645,-29.2036,38.2521,-0.8400,30.0115,0
227.2050,-30.5046,38.4543,-0.8393,29.8747,0
228.2013,-31.7573,38.6424,-0.8384,28.5327,0
229.1644,-32.9607,38.8137,-0.8377,27.2956,0
230.1256,-34.1489,39.0033,-0.8373,27.6120,0
231.1053,-35.3515,39.1988,-0.8374,28.1188,0
232.1084,-36.6131,39.3917,-0.8361,29.1770,0
233.1689,-37.9219,39.6080,-0.8357,30.7495,0
234.2438,-39.2737,39.8137,-0.8354,31.0266,0
235.3266,-40.6179,40.0182,-0.8355,30.8658,0
236.4045,-41.9297,40.2396,-0.8355,30.3101,0
237.4388,-43.2167,40.4406,-0.8350,29.3902,0
238.4803,-44.5054,40.6664,-0.8344,30.0192,0
239.5334,-45.8112,40.8605,-0.8342,29.8986,0
240.5832,-47.1071,41.0541,-0.8342,29.9131,0
241.6649,-48.4350,41.2805,-0.8340,31.1051,0
242.7612,-49.7746,41.5303,-0.8355,31.3317,0
243.8587,-51.1186,41.7462,-0.8373,30.9397,0
244.9152,-52.4433,41.9582,-0.8374,30.2947,0
245.9893,-53.7652,42.1668,-0.8391,30.8697,0
247.0701,-55.1123,42.4020,-0.8405,31.2671,0
248.1579,-56.4751,42.6151,-0.8411,31.3595,0
249.2701,-57.8659,42.8328,-0.8419,32.1410,0
250.3691,-59.2223,43.0700,-0.8437,31.0998,0
251.4294,-60.5719,43.2890,-0.8446,30.8035,0
252.5034,-61.9315,43.5148,-0.8460,31.1654,0
253.6004,-63.3086,43.7556,-0.8467,31.9571,0
254.6772,-64.6849,43.9778,-0.8468,31.3662,0
255.7312,-66.0339,44.2009,-0.8476,30.6867,0
256.7935,-67.3851,44.4185,-0.8487,31.1110,0
257.8839,-68.7473,44.6745,-0.8502,31.4810,0
258.9507,-70.1153,44.8971,-0.8506,31.1401,0
260.0073,-71.4709,45.1073,-0.8516,30.6756,0
261.0679,-72.8144,45.3524,-0.8526,30.9380,0
262.1462,-74.2016,45.5780,-0.8552,31.5936,0
263.2326,-75.5895,45.8232,-0.8603,32.0071,0
264.3343,-76.9822,46.0707,-0.8708,31.8146,0
265.4187,-78.4180,46.3017,-0.8879,32.4979,0
266.4889,-79.8990,46.5512,-0.9059,32.7162,0
267.4751,-81.3127,46.7972,-0.9232,30.5041,0
268.4021,-82.6668,47.0075,-0.9433,29.2439,0
269.2604,-84.0238,47.2286,-0.9646,28.8310,0
270.0877,-85.3729,47.4348,-0.9858,28.2668,0
270.8589,-86.7094,47.6061,-1.0056,27.4303,0
271.5993,-88.0182,47.7921,-1.0248,26.9713,0
272.2835,-89.3197,47.9556,-1.0415,26.0415,0
272.9409,-90.5917,48.1278,-1.0576,25.5862,0
273.5677,-91.8864,48.2826,-1.0738,25.9287,0
274.1664,-93.1760,48.4275,-1.0879,25.3648,0
274.7448,-94.4721,48.5954,-1.1007,25.5054,0
275.3172,-95.7848,48.7352,-1.1091,25.6682,0
275.8942,-97.0982,48.8887,-1.1139,25.5909,0
276.4423,-98.3592,49.0281,-1.1158,24.4534,0
276.9604,-99.5960,49.1443,-1.1180,23.9945,0
277.4547,-100.8233,49.2913,-1.1220,23.5960,0
277.9196,-102.0078,49.4102,-1.1290,22.5045,0
278.3736,-103.1258,49.5390,-1.1395,21.2004,0
278.7880,-104.1934,49.6812,-1.1545,20.3375,0
