x,y,z,yaw,velocity,change_flag
35.1672,-2.3212,5.2618,-0.0354,19.5390,0
36.2427,-2.4111,5.4146,-0.0360,19.4559,0
37.3340,-2.4875,5.5652,-0.0370,19.8046,0
38.4283,-2.5700,5.7435,-0.0383,19.8941,0
39.5301,-2.6902,5.9112,-0.0407,19.9741,0
40.6413,-2.8056,6.0911,-0.0431,20.2301,0
41.7502,-2.8782,6.2538,-0.0444,19.8261,0
42.8482,-2.9605,6.4198,-0.0448,19.9574,0
43.9610,-3.0796,6.6074,-0.0442,20.2981,0
45.0706,-3.2004,6.7879,-0.0438,20.2902,0
46.1738,-3.3067,6.9572,-0.0445,20.0619,0
47.2391,-3.3733,7.1030,-0.0448,19.0669,0
48.3169,-3.4733,7.2565,-0.0457,19.8132,0
49.3439,-3.6011,7.4538,-0.0448,18.3552,0
50.7888,-3.7301,7.6366,-0.0457,17.2370,0
52.1198,-3.8277,7.9295,-0.0451,16.2464,0
53.4278,-3.9739,8.1298,-0.0452,15.5077,0
54.6644,-4.1041,8.3057,-0.0452,14.5986,0
55.8001,-4.2128,8.4751,-0.0450,13.5159,0
56.8665,-4.2854,8.6685,-0.0445,12.3102,0
58.1685,-4.4058,8.8577,-0.0440,11.6067,0
59.3400,-4.5221,9.0695,-0.0443,10.4808,0
60.3506,-4.6249,9.2259,-0.0446,8.3594,0
61.4103,-4.7246,9.3955,-0.0451,7.1868,0
62.5134,-4.8283,9.5794,-0.0448,4.5972,0
63.5111,-4.9169,9.7409,-0.0436,4.1805,0
64.6244,-5.0258,9.9006,-0.0424,6.2339,0
65.7197,-5.1495,10.0668,-0.0421,9.1391,0
66.8600,-5.2549,10.2717,-0.0417,11.2709,0
67.8798,-5.3068,10.4298,-0.0424,12.7570,0
69.0305,-5.4451,10.5920,-0.0400,14.5922,0
70.2840,-5.5693,10.7993,-0.0389,15.7513,0
71.6658,-5.6786,11.0178,-0.0377,16.9640,0
73.1250,-5.7966,11.2744,-0.0378,18.0741,0
74.1231,-5.8762,11.4522,-0.0375,18.1076,0
75.1550,-5.9666,11.6139,-0.0382,18.8748,0
76.2397,-6.0691,11.7764,-0.0388,19.6562,0
77.2646,-6.1303,11.9850,-0.0393,18.8763,0
78.3628,-6.2485,12.1906,-0.0400,20.3239,0
79.4665,-6.3772,12.3608,-0.0375,20.2275,0
80.6082,-6.4531,12.5318,-0.0394,20.7966,0
81.7514,-6.5518,12.7794,-0.0402,20.9201,0
82.9407,-6.6636,12.9796,-0.0412,21.7121,0
84.1549,-6.7630,13.1603,-0.0419,22.2514,0
85.3612,-6.8813,13.3791,-0.0424,22.1752,0
86.6262,-6.9911,13.5957,-0.0429,23.1346,0
87.9277,-7.1115,13.7712,-0.0443,23.7661,0
89.2373,-7.2292,13.9831,-0.0452,23.8233,0
90.5413,-7.3469,14.2287,-0.0459,23.6838,0
91.8755,-7.4689,14.4592,-0.0464,24.3561,0
93.1991,-7.5999,14.6702,-0.0474,24.2098,0
94.5358,-7.7257,14.8835,-0.0481,24.4155,0
95.9115,-7.8710,15.1206,-0.0489,25.1531,0
97.2941,-7.9999,15.3657,-0.0497,25.1068,0
98.6855,-8.1330,15.6112,-0.0500,25.3305,0
100.0849,-8.2763,15.8718,-0.0497,25.6771,0
101.4879,-8.4203,16.0978,-0.0468,25.5535,0
102.9242,-8.5442,16.3584,-0.0451,26.2356,0
104.3392,-8.6903,16.6254,-0.0431,25.8653,0
105.7998,-8.8207,16.8552,-0.0412,26.5619,0
107.2844,-8.9565,17.1008,-0.0407,27.0099,0
108.7599,-9.0948,17.3732,-0.0404,26.6780,0
110.2373,-9.2250,17.6338,-0.0395,27.2066,0
111.7344,-9.3460,17.8799,-0.0385,27.0569,0
113.2234,-9.4764,18.1688,-0.0379,27.2610,0
114.7093,-9.6059,18.4214,-0.0375,26.8989,0
116.1989,-9.7289,18.6783,-0.0372,27.0361,0
117.6886,-9.8630,18.9429,-0.0366,26.9969,0
119.2007,-9.9929,19.2189,-0.0364,27.6107,0
120.7376,-10.1235,19.5005,-0.0358,27.8290,0
122.2548,-10.2411,19.7673,-0.0347,27.5751,0
123.7815,-10.3687,20.0538,-0.0337,28.0752,0
125.3471,-10.4949,20.3194,-0.0340,28.4436,0
126.8878,-10.6297,20.5947,-0.0342,27.5991,0
128.3852,-10.7416,20.9038,-0.0338,27.4582,0
129.9280,-10.8877,21.1544,-0.0338,28.1380,0
131.4375,-11.0112,21.4291,-0.0349,27.2334,0
132.9286,-11.1389,21.7115,-0.0358,27.2761,0
134.4338,-11.2741,21.9830,-0.0358,27.3378,0
135.9448,-11.4110,22.2554,-0.0365,27.3466,0
137.4629,-11.5444,22.5293,-0.0366,27.7387,0
138.9929,-11.6869,22.7956,-0.0377,27.7753,0
140.5032,-11.8157,23.0667,-0.0384,27.3809,0
141.9771,-11.9552,23.3463,-0.0397,26.8444,0
143.4727,-12.0887,23.6310,-0.0398,27.3548,0
145.0110,-12.2197,23.8969,-0.0404,28.0464,0
146.5375,-12.3570,24.1550,-0.0404,27.6868,0
148.0632,-12.4983,24.4443,-0.0411,28.0457,0
149.6579,-12.6549,24.7565,-0.0423,29.4087,0
151.2504,-12.7863,25.0475,-0.0431,28.6864,0
152.7543,-12.9151,25.3414,-0.0429,27.1954,0
154.2245,-13.0630,25.6389,-0.0409,26.8992,0
155.7410,-13.1904,25.9196,-0.0393,28.0226,0
157.2742,-13.3222,26.1789,-0.0378,27.7599,0
158.7740,-13.4539,26.4710,-0.0366,27.3646,0
160.2537,-13.5751,26.7509,-0.0341,26.8521,0
161.7217,-13.7087,27.0246,-0.0300,26.8159,0
163.1922,-13.8192,27.3030,-0.0259,26.8315,0
164.6662,-13.9215,27.5732,-0.0212,26.8255,0
166.1253,-14.0159,27.8475,-0.0152,26.4874,0
167.5819,-14.1130,28.1052,-0.0073,26.3902,0
169.0561,-14.1751,28.3817,0.0022,26.9846,0
170.5383,-14.2521,28.6471,0.0132,26.8294,0
171.9730,-14.2996,28.9033,0.0238,26.1227,0
173.4003,-14.3359,29.1582,0.0370,25.8973,0
174.8356,-14.3465,29.4194,0.0546,26.0235,0
176.2854,-14.3221,29.6580,0.0726,26.2235,0
177.7267,-14.2846,29.9007,0.0899,26.1299,0
179.1606,-14.2208,30.1863,0.1108,26.0043,0
180.5943,-14.1134,30.4126,0.1333,26.0224,0
182.0290,-13.9627,30.6277,0.1544,25.8661,0
183.4119,-13.8050,30.8841,0.1749,25.0384,0
184.7931,-13.6108,31.1334,0.1959,25.3488,0
186.2088,-13.3904,31.3273,0.2169,25.9734,0
187.6019,-13.1429,31.5527,0.2369,25.5549,0
188.9798,-12.8640,31.8136,0.2580,25.5185,0
190.3396,-12.5561,32.0255,0.2805,25.1748,0
191.7176,-12.2128,32.2558,0.3056,25.6404,0
193.0793,-11.8451,32.4784,0.3301,25.5528,0
194.4257,-11.4462,32.6875,0.3541,25.3176,0
195.7325,-11.0075,32.9001,0.3783,24.9015,0
197.0477,-10.5431,33.0836,0.4029,25.1872,0
198.3423,-10.0510,33.2857,0.4274,24.8700,0
199.6143,-9.5441,33.4945,0.4506,24.5655,0
200.8648,-9.0080,33.6876,0.4736,24.5222,0
202.0935,-8.4463,33.8592,0.4957,24.1139,0
203.2413,-7.8837,34.0593,0.5167,22.6987,0
204.3453,-7.3108,34.2326,0.5372,22.4911,0
205.4196,-6.7174,34.3772,0.5566,21.9441,0
206.4970,-6.1258,34.5106,0.5757,22.1011,0
207.5432,-5.5006,34.6771,0.5942,21.8131,0
208.5381,-4.8637,34.8240,0.6120,21.2832,0
209.5220,-4.2277,34.9393,0.6297,20.7821,0
210.4676,-3.5886,35.0544,0.6461,20.3658,0
211.3821,-2.9506,35.1795,0.6620,19.7050,0
212.2437,-2.3350,35.3015,0.6769,18.8892,0
213.0682,-1.7212,35.3809,0.6914,18.2404,0
214.2508,-0.8455,35.5707,0.7114,16.9542,0
215.2803,-0.0246,35.6694,0.7258,15.2883,0
216.2461,0.7680,35.8078,0.7355,14.7749,0
217.1111,1.4876,35.9111,0.7440,13.2555,0
217.9231,2.1834,35.9732,0.7510,12.5993,0
218.9022,3.0284,36.1127,0.7596,11.4392,0
219.7823,3.8366,36.2110,0.7640,10.0269,0
220.5640,4.5259,36.3042,0.7703,9.0467,0
221.3696,5.2425,36.3746,0.7758,6.7261,0
222.1277,5.9543,36.4737,0.7788,4.4286,0
222.9185,6.6872,36.5794,0.7792,4.0062,0
223.7302,7.4212,36.6816,0.7728,5.5156,0
224.6422,8.2164,36.8024,0.7627,8.4485,0
225.4949,8.9580,36.8840,0.7542,10.9676,0
226.2548,9.6203,36.9813,0.7515,12.6844,0
227.1421,10.3936,37.0761,0.7518,14.4969,0
228.1370,11.2516,37.2080,0.7542,16.4550,0
229.2303,12.1966,37.3411,0.7603,17.7384,0
229.9941,12.8686,37.4329,0.7632,18.4337,0
230.7883,13.5850,37.5290,0.7644,19.4183,0
231.6036,14.3122,37.6354,0.7652,19.7542,0
232.4545,15.0701,37.7271,0.7676,20.6744,0
233.3491,15.8536,37.8139,0.7703,21.5377,0
234.2459,16.6635,37.9093,0.7719,21.4128,0
235.1472,17.4747,38.0064,0.7733,21.8509,0
236.0745,18.3183,38.1116,0.7746,22.6748,0
237.0363,19.1923,38.1990,0.7767,23.4957,0
238.0193,20.0806,38.3142,0.7794,23.7867,0
238.9937,20.9851,38.4074,0.7813,23.7628,0
239.9706,21.8686,38.5097,0.7834,23.4789,0
240.9578,22.7676,38.6098,0.7852,24.1930,0
241.9665,23.6999,38.6938,0.7872,24.5991,0
242.9789,24.6305,38.7991,0.7893,24.5183,0
243.9991,25.5895,38.9131,0.7907,25.3020,0
245.0227,26.5434,39.0185,0.7929,24.9372,0
246.0467,27.5067,39.1068,0.7948,25.2500,0
247.0836,28.4919,39.2261,0.7962,25.6732,0
248.1372,29.4974,39.3028,0.7980,26.2008,0
249.1958,30.4808,39.4117,0.8010,25.5780,0
250.2308,31.4903,39.5071,0.8020,26.0874,0
251.2940,32.5145,39.5927,0.8027,26.4040,0
252.3596,33.5402,39.7014,0.8037,26.3568,0
253.4164,34.5610,39.7808,0.8049,26.3633,0
254.4836,35.5923,39.8825,0.8064,26.5399,0
255.5280,36.6155,39.9629,0.8072,25.9108,0
256.5727,37.6317,40.0340,0.8075,26.2407,0
257.6417,38.6797,40.1211,0.8069,26.7310,0
258.7143,39.7274,40.2096,0.8060,27.0659,0
259.8068,40.7739,40.3042,0.8048,26.9678,0
260.8732,41.8150,40.4256,0.8045,26.6512,0
261.9596,42.8757,40.5088,0.8039,27.2056,0
263.0463,43.9302,40.6089,0.8033,27.0815,0
264.1467,45.0002,40.7025,0.8030,27.6068,0
265.2484,46.0778,40.8150,0.8025,27.4136,0
266.3459,47.1396,40.9221,0.8008,27.4813,0
267.4589,48.2217,41.0035,0.7989,27.7339,0
268.5743,49.2901,41.1096,0.7987,27.5195,0
269.6756,50.3504,41.2149,0.7990,27.0092,0
270.7816,51.4091,41.3049,0.7991,27.6532,0
271.9127,52.4868,41.4243,0.8022,28.0001,0
273.0344,53.5647,41.5079,0.8079,27.5918,0
274.1261,54.6276,41.6217,0.8167,27.2460,0
275.2253,55.7038,41.7309,0.8311,27.5328,0
276.2930,56.8068,41.8136,0.8489,27.3395,0
277.3300,57.9186,41.9117,0.8707,27.0859,0
278.3329,59.0341,41.9726,0.8950,26.8742,0
279.3138,60.1793,42.0598,0.9232,26.9365,0
280.2570,61.3518,42.1257,0.9544,26.7286,0
281.1545,62.5596,42.1653,0.9847,27.0640,0
282.0369,63.7898,42.2223,1.0145,26.9619,0
282.8635,65.0307,42.2743,1.0443,26.5228,0
283.6440,66.2875,42.3287,1.0732,26.5083,0
284.4017,67.5862,42.3663,1.1022,26.7159,0
285.1121,68.9041,42.3960,1.1288,26.6043,0
285.7942,70.2148,42.4173,1.1539,26.3113,0
286.4171,71.5499,42.4333,1.1774,26.4400,0
287.0209,72.8928,42.4696,1.2012,26.1710,0
287.6065,74.2524,42.4737,1.2249,26.5054,0
288.1404,75.6169,42.4854,1.2472,26.1261,0
288.6526,76.9876,42.5042,1.2700,26.0563,0
289.1358,78.3512,42.5171,1.2948,25.7615,0
289.5701,79.7173,42.5118,1.3197,25.5182,0
289.9748,81.0974,42.5238,1.3458,25.4735,0
290.3398,82.4725,42.5227,1.3733,25.2763,0
290.6679,83.8511,42.5176,1.4013,25.3228,0
290.9440,85.2081,42.4965,1.4298,24.6435,0
291.1849,86.5689,42.4825,1.4590,24.5350,0
291.3611,87.9251,42.4573,1.4903,24.5067,0
291.5122,89.2657,42.4377,1.5228,23.9127,0
291.6247,90.5910,42.4111,1.5561,23.6921,0
291.6877,91.9133,42.3599,1.5895,23.5188,0
291.6893,93.2138,42.3061,1.6237,23.1898,0
291.6647,94.4981,42.2384,1.6590,22.9589,0
291.6024,95.7605,42.1820,1.6930,22.5170,0
291.4895,96.9985,42.0982,1.7267,22.0805,0
291.3327,98.2102,42.0260,1.7589,21.5794,0
291.1502,99.3509,41.9646,1.7894,20.0750,0
290.9471,100.4252,41.8773,1.8156,19.4003,0
290.7130,101.4531,41.7927,1.8375,18.7321,0
290.4749,102.4245,41.7215,1.8555,17.4907,0
290.1096,103.7746,41.6031,1.8786,16.3578,0
289.7618,105.0139,41.4941,1.8973,14.7386,0
289.4083,106.1413,41.3944,1.9152,13.9256,0
289.0666,107.1327,41.2725,1.9295,11.9087,0
288.6611,108.3522,41.1788,1.9485,11.3262,0
288.2360,109.4779,41.0384,1.9680,10.5329,0
287.8458,110.4998,40.9302,1.9932,9.5104,0
287.4160,111.5567,40.8175,2.0223,7.3931,0
286.9694,112.4820,40.7045,2.0453,3.9359,0
286.5480,113.3933,40.5934,2.0584,1.9433,0
286.1325,114.3363,40.5000,2.0128,4.8449,0
285.7884,115.2851,40.3739,1.9457,6.8762,0
285.4503,116.3138,40.3073,1.8639,8.3643,0
285.1996,117.5278,40.2419,1.7615,9.1891,0
285.0703,118.6067,40.1553,1.6670,9.9816,0
285.0628,119.7743,40.1143,1.5635,10.9877,0
285.1195,121.0173,40.1250,1.4496,11.3644,0
285.4395,122.3080,40.0817,1.3430,12.3751,0
285.6826,123.3368,40.1878,1.2616,12.9686,0
286.0594,124.4352,40.1330,1.1836,14.3545,0
286.6271,125.5399,40.1549,1.1287,14.9086,0
287.2471,126.7072,40.2321,1.0720,16.0515,0
287.9426,127.8539,40.3037,1.0118,15.9236,0
288.7263,128.9572,40.3588,0.9544,16.4577,0
289.6236,130.0768,40.4576,0.9033,17.4344,0
290.6068,131.1633,40.5610,0.8597,17.4702,0
291.6143,132.1765,40.6437,0.8350,16.7413,0
292.6448,133.1998,40.7624,0.8270,17.6261,0
293.6854,134.2499,40.8677,0.8268,17.7594,0
294.4048,134.9480,40.9128,0.8307,17.9735,0
295.1271,135.6783,40.9779,0.8383,18.6161,0
295.8516,136.4451,41.0367,0.8448,18.8360,0
296.5806,137.2077,41.1049,0.8528,18.7654,0
297.3181,137.9915,41.1830,0.8631,19.1978,0
298.0622,138.8020,41.2311,0.8776,19.8436,0
298.7980,139.6543,41.2880,0.8941,19.8554,0
299.5245,140.4677,41.3446,0.9128,19.3427,0
300.2321,141.3254,41.3778,0.9357,20.2338,0
300.9088,142.2299,41.4285,0.9594,20.2003,0
301.6346,143.1246,41.4957,0.9830,20.8384,0
302.3148,144.0692,41.5158,1.0066,20.8174,0
302.9315,145.0317,41.5587,1.0293,20.2720,0
303.5835,145.9976,41.6112,1.0546,21.0520,0
304.2246,147.0021,41.6315,1.0802,21.3441,0
304.8095,148.0286,41.6439,1.1068,21.0011,0
305.3856,149.0714,41.6731,1.1337,21.0819,0
305.9341,150.1465,41.6736,1.1608,21.8060,0
306.4611,151.2562,41.6786,1.1877,22.0215,0
306.9648,152.3757,41.6711,1.2140,21.9332,0
307.4483,153.5298,41.6742,1.2401,22.6345,0
307.9081,154.7273,41.6637,1.2651,22.8940,0
308.3278,155.9320,41.6573,1.2861,22.8265,0
308.7504,157.1424,41.6689,1.3041,22.9833,0
309.1469,158.3672,41.6990,1.3220,23.1122,0
309.5036,159.6073,41.6901,1.3396,23.1782,0
309.8401,160.8793,41.6518,1.3532,23.3971,0
310.1789,162.1474,41.6245,1.3630,23.4802,0
310.5118,163.4244,41.6790,1.3731,23.4018,0
310.8069,164.7287,41.6850,1.3840,23.9552,0
311.0932,166.0290,41.6823,1.3954,23.7355,0
311.3776,167.3270,41.6691,1.4063,23.7603,0
311.6455,168.6248,41.6497,1.4168,23.6856,0
311.8993,169.9394,41.6528,1.4284,23.7737,0
312.1381,171.2496,41.6865,1.4409,23.7310,0
312.3539,172.5479,41.7332,1.4534,23.3179,0
312.5739,173.8378,41.7290,1.4670,23.4092,0
312.7593,175.1269,41.6849,1.4781,23.2924,0
312.9092,176.4096,41.6880,1.4867,22.9463,0
313.0668,177.6629,41.6989,1.4932,22.4955,0
313.2172,178.9068,41.7362,1.5004,22.5499,0
313.3622,180.1520,41.7418,1.5051,22.4329,0
313.4951,181.4277,41.7408,1.5089,22.8986,0
313.6407,182.7036,41.7671,1.5108,22.9148,0
313.7850,183.9797,41.7912,1.5114,22.9809,0
313.9153,185.2666,41.7996,1.5124,22.9511,0
314.0518,186.5440,41.8201,1.5135,22.8844,0
314.2039,187.8470,41.8036,1.5124,23.5748,0
314.3575,189.1522,41.8546,1.5103,23.3627,0
314.4608,190.4567,41.8913,1.5090,23.3152,0
314.5572,191.7472,41.9039,1.5090,23.2274,0
314.6798,193.0589,41.8977,1.5090,23.4815,0
314.8076,194.3720,41.9488,1.5093,23.6713,0
314.9213,195.7220,41.9691,1.5099,24.1217,0
315.0602,197.0100,41.9844,1.5096,23.0851,0
315.1876,198.2977,42.0007,1.5122,23.0970,0
315.2899,199.6244,42.0000,1.5150,23.7913,0
315.3999,200.9597,42.0375,1.5164,23.9826,0
315.5158,202.2852,42.0721,1.5170,23.8368,0
315.6323,203.6142,42.0879,1.5172,23.6481,0
315.7386,204.9445,42.0935,1.5182,23.9173,0
315.8426,206.2911,42.1222,1.5192,24.1718,0
315.9799,207.6258,42.1584,1.5183,23.6557,0
316.0992,208.9235,42.1733,1.5163,23.4214,0
316.2151,210.2348,42.2235,1.5147,23.5010,0
316.3383,211.5477,42.2415,1.5149,23.6458,0
316.4656,212.8546,42.2579,1.5135,23.4166,0
316.5898,214.1752,42.2708,1.5123,23.7280,0
316.7059,215.4883,42.2976,1.5113,23.2003,0
316.8174,216.7619,42.3240,1.5101,22.6056,0
316.9560,218.0606,42.3418,1.5104,23.5273,0
317.0825,219.3322,42.3647,1.5111,22.5740,0
317.1947,220.5877,42.3681,1.5109,22.3223,0
317.3332,221.8411,42.3932,1.5109,22.5450,0
317.4579,223.0923,42.4160,1.5110,22.3100,0
317.5893,224.3325,42.4227,1.5120,22.4196,0
317.6995,225.5777,42.4398,1.5137,22.2133,0
317.8082,226.7855,42.4498,1.5150,21.5977,0
317.9340,227.9809,42.4393,1.5168,21.5737,0
318.0404,229.1917,42.4366,1.5184,21.5600,0
318.1320,230.3792,42.4761,1.5210,21.3513,0
318.2551,231.5530,42.4713,1.5232,20.7762,0
318.3637,232.7023,42.4633,1.5236,20.7406,0
318.4572,233.8830,42.4234,1.5228,21.1417,0
318.5387,235.0395,42.4370,1.5233,20.5884,0
318.6364,236.1628,42.4228,1.5243,20.2063,0
318.7318,237.3076,42.4336,1.5269,20.4082,0
318.8357,238.4375,42.4327,1.5298,20.1610,0
318.9230,239.5656,42.4141,1.5342,20.1517,0
319.0023,240.6768,42.4071,1.5391,19.8582,0
319.0816,241.8051,42.4019,1.5447,20.2370,0
319.1590,242.9133,42.4218,1.5530,19.7405,0
319.2205,244.0313,42.4224,1.5637,20.0692,0
319.2798,245.1402,42.4257,1.5760,19.8601,0
319.3190,246.2569,42.4201,1.5895,19.7323,0
319.3407,247.3677,42.4204,1.6040,19.7352,0
319.3469,248.4841,42.4258,1.6192,19.8948,0
319.3346,249.6072,42.4263,1.6357,20.1726,0
319.3033,250.7176,42.4288,1.6535,19.8584,0
319.2704,251.8489,42.4107,1.6731,20.3050,0
319.2338,252.9916,42.3781,1.6931,20.3993,0
319.1590,254.1294,42.3538,1.7118,20.2565,0
319.0534,255.2355,42.3479,1.7309,19.6903,0
318.9259,256.3264,42.3232,1.7508,19.6294,0
318.7634,257.4069,42.3013,1.7703,19.5284,0
318.5710,258.5071,42.2916,1.7905,19.9829,0
318.3752,259.5814,42.2622,1.8109,19.2818,0
318.1540,260.6241,42.2346,1.8310,19.1170,0
317.9174,261.6960,42.2148,1.8505,19.8846,0
317.6630,262.7729,42.1793,1.8684,19.4670,0
317.3566,263.7984,42.1627,1.8832,19.1651,0
317.0388,264.8424,42.1261,1.8929,19.6149,0
316.7326,265.8757,42.0975,1.8977,19.1426,0
316.4214,266.9023,42.0668,1.8955,19.5410,0
316.1198,267.9551,41.9992,1.8899,19.3930,0
315.8196,268.9811,41.9566,1.8804,19.1926,0
315.5203,270.0211,41.9208,1.8691,19.2661,0
315.2707,271.0548,41.8798,1.8562,18.8238,0
315.0216,272.0700,41.8679,1.8404,18.6853,0
314.7826,273.0855,41.8463,1.8219,18.6936,0
314.5685,274.1064,41.8341,1.8008,18.6754,0
314.3780,275.1275,41.8332,1.7788,18.4490,0
314.2085,276.1504,41.8154,1.7574,18.4082,0
314.0753,277.1568,41.7982,1.7353,18.2010,0
313.9700,278.1744,41.8197,1.7131,18.2868,0
313.8738,279.1894,41.8066,1.6911,18.2136,0
313.7975,280.2215,41.7974,1.6681,18.5157,0
313.7586,281.2579,41.8026,1.6487,18.4669,0
313.7319,282.3015,41.8058,1.6306,18.6292,0
313.7130,283.3347,41.8707,1.6144,18.4304,0
313.7106,284.3768,41.8987,1.5989,18.6577,0
313.7267,285.4243,41.9592,1.5835,18.4081,0
313.7564,286.4499,41.9746,1.5664,18.3653,0
313.8107,287.4910,42.0082,1.5502,18.5952,0
313.8763,288.5215,42.0247,1.5344,18.4731,0
313.9565,289.5405,42.0670,1.5191,18.1154,0
314.0658,290.5434,42.1232,1.5040,18.0342,0
314.1766,291.5542,42.1880,1.4885,18.1166,0
314.3506,293.0480,42.2556,1.4636,18.0548,0
314.5661,294.5192,42.3554,1.4360,17.6001,0
314.8523,295.9643,42.4431,1.4047,17.3690,0
315.1877,297.3705,42.5583,1.3728,17.5687,0
315.5040,298.7403,42.6604,1.3337,16.3688,0
315.9160,300.0308,42.7749,1.2898,16.0895,0
316.3394,301.1834,42.9389,1.2421,14.5891,0
316.7492,302.2672,43.0533,1.1850,13.6269,0
317.2581,303.2953,43.1854,1.1242,13.6250,0
317.8420,304.2833,43.3179,1.0600,13.5986,0
318.3883,305.1854,43.4684,0.9946,12.4057,0
319.0078,306.0516,43.6394,0.9305,12.9422,0
319.7114,306.8501,43.8392,0.8762,12.6814,0
320.4008,307.5854,43.9925,0.8428,12.4837,0
321.2535,308.4622,44.1426,0.8348,10.1610,0
321.9858,309.1738,44.3111,0.8576,9.2104,0
322.8265,309.9669,44.5095,0.9296,7.8392,0
323.4190,310.7997,44.6557,1.0351,7.3410,0
323.9304,311.8037,44.8247,1.1938,6.2092,0
324.2849,312.9401,44.9942,1.3817,7.6384,0
324.4229,313.9995,45.0763,1.5586,7.9087,0
324.3846,315.0959,45.1291,1.7426,8.4500,0
324.1889,316.1325,45.2294,1.9196,7.1060,0
323.7852,317.1683,45.2793,2.1070,5.9359,0
323.1564,318.1048,45.2718,2.2967,5.3675,0
322.3960,318.9225,45.1962,2.4875,4.8719,0
321.5104,319.5305,45.0971,2.6680,5.5067,0
320.4550,320.0355,44.8880,2.8655,6.5441,0
319.3614,320.3000,44.7128,3.0600,7.4904,0
318.2430,320.3426,44.5508,-3.0214,6.6507,0
317.1647,320.1603,44.3209,-2.8268,6.6424,0
316.0937,319.7505,44.1014,-2.6190,5.3526,0
316.9809,320.2556,44.2645,-2.5792,3.0124,0
317.8590,320.7397,44.4650,-2.5713,2.9755,0
316.9268,320.1298,44.2636,-2.4195,5.7860,0
316.0221,319.4223,44.0929,-2.2675,7.6425,0
315.3249,318.5590,43.8935,-2.0991,8.0772,0
314.7371,317.5491,43.7366,-1.9216,8.8972,0
314.3554,316.5925,43.6440,-1.7868,9.3510,0
314.1229,315.4602,43.4901,-1.6653,11.0842,0
314.0121,314.1375,43.3264,-1.5815,12.3928,0
313.9991,313.0847,43.1998,-1.5338,12.8229,0
314.0262,311.9807,43.1056,-1.5061,13.3847,0
314.0502,310.8229,43.0532,-1.4913,14.1313,0
314.0883,309.6050,42.9784,-1.4907,14.9241,0
314.1095,308.3074,42.8685,-1.4956,15.7798,0
314.1812,306.9393,42.7881,-1.5088,16.1051,0
314.1491,305.5500,42.7354,-1.5248,16.8961,0
314.1327,304.1001,42.6411,-1.5438,17.0620,0
314.1070,302.6291,42.5517,-1.5624,17.9447,0
314.0440,301.6097,42.4999,-1.5748,18.3207,0
313.9456,300.6017,42.4499,-1.5854,18.0982,0
313.8557,299.5757,42.3916,-1.5911,18.4998,0
313.7933,298.5420,42.3266,-1.5914,18.4104,0
313.7156,297.4977,42.2926,-1.5884,18.9290,0
313.6112,296.4415,42.2421,-1.5837,19.0675,0
313.5340,295.3762,42.1893,-1.5782,19.0108,0
313.4775,294.3078,42.1409,-1.5725,19.0077,0
313.4132,293.2510,42.1152,-1.5633,18.9645,0
313.3523,292.1890,42.0831,-1.5517,18.9794,0
313.3306,291.1329,42.0194,-1.5411,18.8493,0
313.3096,290.0651,41.9928,-1.5315,19.0678,0
313.2765,288.9938,41.9683,-1.5227,19.1781,0
313.2467,287.9306,41.9476,-1.5146,18.8403,0
313.2599,286.8710,41.9120,-1.5064,19.1297,0
313.3030,285.7921,41.8612,-1.4958,19.4541,0
313.3453,284.6922,41.8440,-1.4850,19.8664,0
313.3784,283.5641,41.8012,-1.4735,20.2213,0
313.4106,282.4383,41.8243,-1.4619,19.9356,0
313.4542,281.3407,41.8269,-1.4503,19.4367,0
313.5500,280.2314,41.7950,-1.4404,19.9813,0
313.6489,279.0957,41.7770,-1.4324,20.5999,0
313.7425,277.9344,41.7946,-1.4250,20.9561,0
313.8511,276.7688,41.7704,-1.4179,20.9014,0
313.9752,275.5808,41.7671,-1.4116,21.6987,0
314.0937,274.3651,41.7609,-1.4065,21.7270,0
314.2174,273.1917,41.7503,-1.4010,21.1336,0
314.3477,272.0040,41.7540,-1.3965,21.3495,0
314.4897,270.8326,41.7724,-1.3949,20.9541,0
314.6151,269.6337,41.7895,-1.3953,21.7210,0
314.7627,268.4184,41.8076,-1.3970,21.9749,0
314.9274,267.2131,41.8330,-1.4016,21.7552,0
315.0731,266.0095,41.8589,-1.4079,21.5740,0
315.2163,264.7883,41.8612,-1.4151,22.3163,0
315.3359,263.5679,41.8562,-1.4220,21.6011,0
315.4545,262.3479,41.8654,-1.4290,21.8188,0
315.5573,261.1152,41.8881,-1.4362,22.2201,0
315.6527,259.8909,41.9064,-1.4431,21.7958,0
315.7361,258.6706,41.9116,-1.4493,21.8189,0
315.8077,257.4335,41.9226,-1.4561,22.1621,0
315.8859,256.2014,41.9365,-1.4641,22.1052,0
315.9582,254.9708,41.9481,-1.4743,21.9859,0
316.0038,253.7338,41.9478,-1.4854,22.1711,0
316.0382,252.4929,41.9625,-1.4966,22.2366,0
316.0591,251.2503,41.9746,-1.5083,22.0534,0
316.0621,250.0210,41.9894,-1.5197,21.8073,0
316.0556,248.7654,41.9863,-1.5311,22.6548,0
316.0427,247.5310,41.9924,-1.5395,22.0683,0
316.0295,246.2796,41.9759,-1.5464,22.4173,0
315.9878,245.0306,41.9758,-1.5533,22.2634,0
315.9291,243.7955,41.9934,-1.5599,22.3241,0
315.8737,242.5352,42.0012,-1.5665,22.1959,0
315.8089,241.2755,42.0171,-1.5730,22.5875,0
315.7399,240.0048,42.0108,-1.5788,22.7881,0
315.6702,238.7359,42.0126,-1.5841,22.4059,0
315.5754,237.4677,42.0045,-1.5872,22.6862,0
315.4757,236.2118,41.9939,-1.5894,22.4902,0
315.3926,234.9616,42.0010,-1.5925,22.5375,0
315.2701,233.6534,41.9922,-1.5951,23.4621,0
315.1579,232.3663,41.9897,-1.5980,23.0087,0
315.0493,231.0926,41.9791,-1.6003,22.8270,0
314.9209,229.8101,41.9463,-1.6028,23.1525,0
314.7865,228.5076,41.9262,-1.6058,23.3775,0
314.6748,227.2226,41.8990,-1.6079,23.0309,0
314.5710,225.9459,41.8661,-1.6102,22.8154,0
314.4237,224.6792,41.8512,-1.6116,22.8553,0
314.2882,223.3966,41.8198,-1.6121,22.8383,0
314.1655,222.1276,41.7888,-1.6134,22.8092,0
314.0070,220.8613,41.7906,-1.6146,22.7344,0
313.8809,219.6078,41.7551,-1.6158,22.5464,0
313.7554,218.3556,41.7127,-1.6154,22.4658,0
313.6021,217.0988,41.6406,-1.6135,22.6461,0
313.4642,215.8568,41.6319,-1.6128,22.1257,0
313.3430,214.6250,41.6423,-1.6134,21.9384,0
313.2263,213.3957,41.6128,-1.6136,22.0887,0
313.1016,212.1646,41.5987,-1.6106,22.0989,0
312.9967,210.9342,41.5840,-1.6068,22.1695,0
312.8843,209.7037,41.5502,-1.6031,22.2624,0
312.7568,208.4644,41.5471,-1.5997,22.2859,0
312.6610,207.2275,41.5373,-1.5976,22.2432,0
312.5499,205.9791,41.5085,-1.5935,22.2595,0
312.4575,204.7359,41.4707,-1.5886,22.3144,0
312.3693,203.4604,41.4442,-1.5863,23.0086,0
312.2705,202.1731,41.4523,-1.5870,22.9777,0
312.1597,200.8631,41.4290,-1.5893,23.5807,0
312.0644,199.5130,41.3819,-1.5908,24.2474,0
311.9506,198.1622,41.3536,-1.5925,24.2681,0
311.8422,196.7824,41.3085,-1.5946,24.6851,0
311.7355,195.4160,41.2889,-1.5966,24.3665,0
311.6213,194.0788,41.2991,-1.5993,23.9613,0
311.4945,192.7475,41.2926,-1.6036,23.8942,0
311.3698,191.3820,41.2844,-1.6086,24.6782,0
311.2461,190.0172,41.2652,-1.6139,24.2313,0
311.1009,188.6663,41.2500,-1.6174,24.1693,0
310.9598,187.3126,41.2347,-1.6222,24.5360,0
310.8052,185.9357,41.2267,-1.6273,24.7636,0
310.6459,184.5598,41.2019,-1.6325,24.7460,0
310.4751,183.1903,41.1817,-1.6374,24.6252,0
310.3065,181.8153,41.1529,-1.6423,24.6977,0
310.1155,180.4413,41.1436,-1.6471,24.8650,0
309.9177,179.0501,41.1282,-1.6527,25.0485,0
309.7205,177.6762,41.0918,-1.6582,24.7496,0
309.5156,176.3053,41.0709,-1.6646,24.6731,0
309.3167,174.9437,41.0515,-1.6722,24.5721,0
309.1144,173.6023,41.0433,-1.6820,24.1426,0
308.8893,172.2436,41.0355,-1.6920,24.6846,0
308.6717,170.8813,41.0473,-1.7029,24.7721,0
308.4354,169.5333,41.0586,-1.7151,24.1858,0
308.1694,168.2428,41.0621,-1.7259,23.4090,0
307.8861,166.9425,41.0706,-1.7375,23.9960,0
307.6012,165.6560,41.0793,-1.7508,23.4714,0
307.3002,164.3842,41.0705,-1.7641,23.2475,0
306.9662,163.1062,41.0836,-1.7796,23.4795,0
306.5982,161.8504,41.0999,-1.7980,23.3287,0
306.2425,160.5902,41.0616,-1.8189,23.2709,0
305.8546,159.3520,41.0632,-1.8421,23.0640,0
305.4240,158.1554,41.0916,-1.8654,22.5984,0
304.9674,156.9638,41.0853,-1.8893,22.6045,0
304.5142,155.8049,41.0561,-1.9132,22.1392,0
304.0266,154.6789,41.0244,-1.9377,21.8563,0
303.5179,153.5889,41.0305,-1.9613,21.5373,0
302.9955,152.5301,41.0170,-1.9835,21.0219,0
302.4681,151.4849,41.0153,-2.0046,20.8190,0
301.8947,150.4575,41.0190,-2.0234,21.0213,0
301.3226,149.4278,41.0148,-2.0431,20.8877,0
300.7220,148.4218,40.9895,-2.0627,20.9368,0
300.1114,147.4304,40.9453,-2.0822,20.7591,0
299.4974,146.4603,40.9226,-2.1014,20.5137,0
298.8726,145.5196,40.9015,-2.1200,20.0605,0
298.2416,144.6163,40.8563,-2.1390,19.4830,0
297.6073,143.7507,40.8097,-2.1581,19.0176,0
296.9742,142.9067,40.7749,-2.1765,18.8842,0
296.3376,142.0959,40.7258,-2.1940,18.2256,0
295.3985,140.9440,40.6660,-2.2201,17.4775,0
294.4485,139.8434,40.5907,-2.2444,17.1761,0
293.5406,138.8168,40.5118,-2.2651,15.9788,0
292.6404,137.8605,40.4188,-2.2845,15.4011,0
291.7904,136.9908,40.3620,-2.3011,13.8210,0
291.0353,136.2369,40.2839,-2.3158,12.2150,0
290.2039,135.4502,40.1807,-2.3309,9.2337,0
289.4550,134.7726,40.1233,-2.3446,6.0656,0
288.6215,134.0190,40.0431,-2.3694,4.4692,0
287.8409,133.3360,39.9826,-2.4217,5.1609,0
286.9883,132.6816,39.8465,-2.4914,7.2415,0
285.9904,132.0533,39.7262,-2.5751,8.9489,0
285.0755,131.5631,39.6038,-2.6572,9.7491,0
284.0008,131.1001,39.4274,-2.7515,11.4147,0
282.7397,130.7086,39.2437,-2.8549,11.7194,0
281.4360,130.4210,38.9818,-2.9615,12.3937,0
280.3808,130.3207,38.8188,-3.0455,12.8637,0
279.2752,130.3592,38.7248,-3.1336,13.5885,0
278.2084,130.4357,38.4724,3.0591,13.1355,0
277.0929,130.6177,38.2945,2.9668,13.5808,0
275.9552,130.9618,38.0907,2.8695,14.6848,0
274.7944,131.4219,37.8887,2.7741,15.3286,0
273.6268,131.9522,37.6720,2.6915,15.4440,0
272.4497,132.6272,37.4413,2.6167,17.1836,0
271.2347,133.4439,37.1832,2.5405,17.9141,0
270.4383,134.0641,37.0289,2.4984,18.3717,0
269.6492,134.7262,36.8477,2.4637,18.6326,0
268.8495,135.4287,36.6732,2.4306,19.5054,0
268.0512,136.1886,36.5163,2.4048,19.8655,0
267.2590,136.9696,36.3587,2.3862,20.2913,0
266.4481,137.7966,36.1727,2.3712,20.9670,0
265.6474,138.6613,35.9866,2.3576,21.3038,0
264.8377,139.5355,35.8068,2.3476,21.6320,0
264.0378,140.4265,35.6296,2.3408,21.5499,0
263.2493,141.3139,35.4735,2.3362,21.3804,0
262.4479,142.2260,35.2813,2.3317,22.1595,0
261.6551,143.1556,35.1035,2.3273,22.0392,0
260.8543,144.0822,34.9512,2.3228,21.9824,0
260.0356,145.0311,34.7863,2.3201,22.7375,0
259.2276,145.9886,34.6176,2.3197,22.4375,0
258.4194,146.9257,34.4576,2.3184,22.0690,0
257.6069,147.8790,34.2799,2.3168,22.8737,0
256.7919,148.8484,34.1254,2.3154,22.3225,0
256.0085,149.7848,33.9669,2.3136,22.2527,0
255.1909,150.7454,33.8025,2.3118,22.7270,0
254.3833,151.7055,33.6272,2.3059,22.6312,0
253.5884,152.6900,33.4699,2.3003,22.8193,0
252.8154,153.6000,33.3163,2.2952,22.3626,0
251.9918,154.6177,33.1386,2.2882,23.7302,0
251.1882,155.6306,33.0031,2.2810,23.0009,0
250.4213,156.6046,32.8743,2.2729,22.0691,0
249.6588,157.5850,32.7228,2.2626,22.4853,0
248.9190,158.5908,32.5810,2.2509,22.3734,0
248.1827,159.6098,32.4323,2.2412,22.6363,0
247.4380,160.6417,32.2904,2.2321,22.9060,0
246.7053,161.6730,32.1583,2.2227,22.5334,0
246.0053,162.6688,32.0411,2.2138,21.6917,0
245.3394,163.6496,31.9017,2.2055,21.0965,0
244.6872,164.6330,31.7699,2.1974,21.3435,0
244.0277,165.6310,31.6510,2.1880,21.4667,0
243.3754,166.6600,31.5376,2.1789,21.8132,0
242.7182,167.6693,31.4234,2.1704,21.5417,0
242.0997,168.6637,31.2996,2.1625,20.6576,0
241.5017,169.6372,31.2128,2.1558,20.4361,0
240.9107,170.6271,31.0786,2.1482,20.6383,0
240.3253,171.5991,30.9453,2.1401,20.4022,0
239.7704,172.5775,30.8758,2.1330,19.9783,0
239.2189,173.5509,30.7859,2.1300,20.0678,0
238.6566,174.5185,30.6572,2.1279,19.8901,0
238.1187,175.4735,30.5674,2.1263,19.5664,0
237.5941,176.4022,30.4634,2.1247,19.0694,0
237.0706,177.3250,30.4185,2.1229,18.8777,0
236.5790,178.2330,30.3522,2.1204,18.5134,0
236.0756,179.1429,30.2458,2.1194,18.7279,0
235.5490,180.0345,30.1793,2.1176,18.7374,0
235.0394,180.9480,30.1511,2.1185,18.7320,0
234.5370,181.8753,30.0594,2.1227,19.0706,0
234.0063,182.8074,29.9395,2.1272,19.3774,0
233.4518,183.7561,29.8275,2.1300,19.7371,0
232.9169,184.7310,29.7175,2.1342,20.0778,0
232.3643,185.6949,29.6117,2.1354,20.1397,0
231.7704,186.6603,29.6046,2.1416,19.9773,0
231.2189,187.6199,29.4631,2.1479,20.0655,0
230.6370,188.6020,29.3103,2.1558,20.8315,0
230.0690,189.5740,29.1509,2.1609,20.4347,0
229.4605,190.5455,29.1230,2.1690,20.3397,0
228.8544,191.5116,28.9537,2.1773,20.9738,0
228.1959,192.5098,28.8390,2.1854,21.6170,0
227.5503,193.5288,28.7419,2.1982,21.6221,0
226.8599,194.5637,28.6173,2.2120,22.4989,0
226.1461,195.6133,28.4869,2.2250,22.8220,0
225.4252,196.6442,28.3569,2.2375,22.5224,0
224.6798,197.6906,28.2171,2.2506,23.2282,0
223.9121,198.7387,28.0656,2.2635,23.4500,0
223.1099,199.7905,27.9387,2.2761,23.6754,0
222.2950,200.8231,27.8112,2.2879,23.5706,0
221.4678,201.8605,27.6622,2.3001,24.1550,0
220.6282,202.8992,27.4963,2.3111,23.9213,0
219.7734,203.9187,27.3457,2.3211,23.8616,0
218.8902,204.9544,27.1975,2.3297,24.7047,0
217.9914,205.9827,27.0543,2.3372,24.3365,0
217.0997,206.9892,26.8910,2.3438,24.1597,0
216.2075,207.9791,26.7163,2.3474,23.9886,0
215.2984,208.9765,26.5698,2.3468,24.2908,0
214.4020,209.9773,26.3821,2.3465,24.1006,0
213.5090,210.9940,26.1830,2.3456,24.3481,0
212.5986,211.9997,25.9923,2.3439,24.4443,0
211.6769,213.0404,25.8045,2.3436,25.2046,0
210.7686,214.0895,25.6166,2.3441,24.7890,0
209.8436,215.1260,25.4113,2.3429,25.0797,0
208.9027,216.1706,25.2365,2.3414,25.2380,0
207.9673,217.2164,25.0466,2.3404,25.1477,0
207.0425,218.2671,24.8356,2.3395,25.2819,0
206.1084,219.3216,24.6282,2.3386,25.3424,0
205.1503,220.4022,24.4289,2.3377,26.2403,0
204.2020,221.4911,24.2130,2.3373,25.9362,0
203.2533,222.5549,24.0088,2.3368,25.7293,0
202.3159,223.6342,23.7967,2.3362,25.8266,0
201.3817,224.6958,23.5855,2.3357,25.3850,0
200.4374,225.7613,23.3762,2.3360,25.7203,0
199.5118,226.8199,23.1553,2.3369,25.1375,0
198.5851,227.8705,22.9432,2.3380,25.4093,0
197.6738,228.9076,22.7454,2.3390,24.7706,0
196.7661,229.9355,22.5288,2.3402,24.9561,0
195.8430,230.9739,22.3112,2.3426,25.3079,0
194.8956,232.0440,22.0800,2.3454,25.7453,0
193.9302,233.1098,21.8533,2.3480,26.2453,0
192.9604,234.1733,21.6075,2.3504,25.9999,0
192.0019,235.2264,21.3851,2.3512,25.6114,0
191.0500,236.2822,21.1584,2.3526,25.9460,0
190.0553,237.3474,20.9097,2.3541,26.4176,0
189.0760,238.4170,20.6590,2.3549,26.1500,0
188.0910,239.4920,20.4191,2.3544,26.3100,0
187.1072,240.5649,20.1816,2.3532,26.2182,0
186.1352,241.6455,19.9396,2.3530,26.3187,0
185.1519,242.7261,19.6899,2.3528,26.2437,0
184.1817,243.7961,19.4526,2.3520,26.1027,0
183.2119,244.8722,19.2356,2.3512,26.3148,0
182.2451,245.9480,18.9915,2.3501,26.0923,0
181.2937,246.9990,18.7389,2.3487,25.7144,0
180.3446,248.0598,18.4935,2.3469,26.0056,0
179.3780,249.1269,18.2655,2.3456,25.8447,0
178.4258,250.1963,18.0384,2.3446,25.9762,0
177.4772,251.2655,17.8190,2.3442,25.6796,0
176.5520,252.3247,17.5757,2.3441,25.5650,0
175.6129,253.3737,17.3433,2.3436,25.2220,0
174.6884,254.4292,17.1240,2.3432,25.4935,0
173.7483,255.4916,16.8891,2.3422,25.7121,0
172.7995,256.5551,16.6696,2.3420,25.6942,0
171.8651,257.6093,16.4373,2.3416,25.4283,0
170.9349,258.6589,16.1927,2.3417,25.3865,0
169.9845,259.7208,15.9823,2.3418,25.6737,0
169.0417,260.7753,15.7620,2.3419,25.5041,0
168.1153,261.8280,15.5397,2.3413,25.3684,0
167.1762,262.8945,15.2980,2.3415,25.8461,0
166.2377,263.9637,15.0725,2.3415,25.5388,0
165.2917,265.0311,14.8670,2.3417,25.7099,0
164.3590,266.0872,14.6358,2.3418,25.3495,0
163.4272,267.1388,14.3996,2.3417,25.5386,0
162.4825,268.1981,14.1734,2.3413,25.6241,0
161.5410,269.2685,13.9418,2.3416,25.7573,0
160.5795,270.3299,13.7210,2.3405,26.1096,0
159.5696,271.4456,13.4870,2.3380,27.3902,0
158.6223,272.5271,13.2553,2.3380,25.4414,0
157.6978,273.5715,13.0369,2.3398,25.3414,0
156.7688,274.6348,12.8141,2.3414,25.5118,0
155.8100,275.7017,12.5823,2.3416,25.9843,0
154.8752,276.7565,12.3508,2.3434,25.3726,0
153.9463,277.8107,12.1316,2.3448,25.4080,0
153.0079,278.8644,11.8962,2.3491,25.5681,0
152.0629,279.9188,11.6730,2.3534,25.6457,0
151.1030,280.9720,11.4496,2.3584,25.7035,0
150.1646,282.0067,11.2193,2.3654,25.1465,0
149.2101,283.0255,10.9959,2.3735,25.2958,0
148.2680,284.0225,10.7888,2.3819,24.6108,0
147.3294,284.9935,10.5658,2.3901,24.1020,0
146.4267,285.9147,10.3678,2.3978,23.0272,0
145.5454,286.8050,10.1704,2.4056,22.5648,0
144.6770,287.6519,9.9765,2.4141,21.7372,0
143.8333,288.4700,9.7778,2.4213,21.1709,0
143.0215,289.2614,9.6063,2.4298,20.3037,0
142.2431,289.9949,9.4314,2.4367,19.0738,0
141.4939,290.6842,9.2417,2.4435,18.3729,0
140.4073,291.6931,8.9928,2.4541,17.7080,0
139.3851,292.5977,8.7869,2.4638,15.9554,0
138.3886,293.4712,8.5568,2.4777,15.8541,0
137.4382,294.2748,8.3387,2.4928,14.8272,0
136.5000,295.0699,8.1256,2.5078,14.7389,0
135.5570,295.8170,7.8997,2.5228,14.5463,0
134.6404,296.5273,7.7078,2.5376,13.4872,0
133.7994,297.1680,7.5019,2.5476,12.7264,0
132.8029,297.9070,7.2811,2.5505,10.2326,0
131.9852,298.5433,7.1052,2.5397,8.9237,0
131.0880,299.2533,6.9066,2.5021,8.4124,0
130.1904,300.0500,6.7053,2.4381,8.3812,0
129.3476,300.9094,6.4954,2.3442,8.9006,0
128.5561,301.8870,6.2814,2.2198,9.5622,0
127.9637,302.7712,6.1292,2.1084,9.6903,0
127.4556,303.7360,5.9820,1.9987,9.8816,0
127.0704,304.7089,5.8565,1.9006,9.4381,0
126.7610,305.8752,5.7010,1.8312,7.8001,0
126.5359,306.9702,5.5365,1.8077,8.2312,0
126.3181,308.0505,5.5011,1.7644,7.7172,0
126.2067,309.1806,5.4185,1.6965,8.2272,0
126.1337,310.3055,5.3584,1.6523,7.6649,0
126.1221,311.4712,5.2841,1.6495,6.6078,0
126.0857,312.5737,5.2366,1.6886,6.3407,0
125.9960,313.6850,5.1720,1.7710,5.4476,0
125.7551,314.6985,5.0985,1.8750,4.0920,0
126.0874,313.7061,5.1742,1.9242,2.6919,0
126.4777,312.7170,5.2723,2.0167,3.5554,0
126.9099,311.7956,5.3821,2.1383,2.1874,0
127.4687,310.9451,5.4795,2.2702,1.3859,0
126.8165,311.7629,5.3591,2.2980,3.2895,0
126.1557,312.5690,5.2461,2.3943,3.7399,0
125.3965,313.2759,5.1170,2.5313,2.4919,0
126.2143,312.6311,5.2417,2.5715,1.9182,0
127.0773,312.0674,5.4032,2.6716,1.6072,0
126.1400,312.5582,5.2510,2.8105,4.7187,0
125.0904,312.8993,5.1097,2.9580,4.9239,0
124.0299,313.0605,4.9811,-3.1393,3.1559,0
123.0163,313.0284,4.8741,-2.9600,3.9470,0
121.8832,312.7523,4.7610,-2.7519,6.1803,0
120.9357,312.3170,4.6753,-2.5728,8.5189,0
119.9373,311.6356,4.6289,-2.3657,8.6602,0
119.1694,310.8472,4.5701,-2.1829,10.0356,0
118.5208,309.9248,4.5053,-1.9917,10.9489,0
118.0857,308.8438,4.4847,-1.7965,9.9469,0
117.8224,307.6884,4.5110,-1.5961,10.8950,0
117.8165,306.5124,4.5242,-1.4084,10.1215,0
118.0030,305.4012,4.5907,-1.2338,10.3579,0
118.4172,304.2929,4.6716,-1.0669,10.6956,0
118.9997,303.2545,4.7698,-0.9147,11.1862,0
119.8030,302.2140,4.9028,-0.7805,12.0642,0
120.5228,301.5061,4.9971,-0.7012,12.4321,0
121.3035,300.8004,5.1175,-0.6311,12.9773,0
122.1695,300.1428,5.3024,-0.5731,13.0539,0
123.0804,299.5679,5.5379,-0.5381,13.5832,0
124.0160,298.9167,5.7291,-0.5086,13.7273,0
125.0252,298.3263,5.9445,-0.4920,14.5182,0
126.1264,297.6953,6.1621,-0.4929,15.9126,0
127.2809,296.9926,6.4046,-0.5081,16.7537,0
128.5470,296.2017,6.6522,-0.5327,18.3078,0
129.3946,295.6454,6.8312,-0.5492,18.4384,0
130.2429,295.0619,7.0051,-0.5659,18.9408,0
131.1581,294.4230,7.2055,-0.5839,20.6027,0
132.0852,293.7291,7.3911,-0.6002,20.8318,0
132.9573,293.0554,7.5789,-0.6127,19.7792,0
133.8319,292.3794,7.7670,-0.6257,20.1916,0
134.7333,291.6332,7.9804,-0.6389,21.4093,0
135.6652,290.8668,8.1839,-0.6529,21.6455,0
136.5707,290.0947,8.3848,-0.6664,21.4313,0
137.4644,289.2796,8.5793,-0.6809,22.1130,0
138.4152,288.4443,8.7711,-0.6952,23.0513,0
139.3364,287.5735,9.0117,-0.7089,22.9186,0
140.2556,286.6682,9.2148,-0.7210,23.3600,0
141.1761,285.7487,9.4119,-0.7308,23.4491,0
142.1191,284.8209,9.6145,-0.7390,24.0542,0
143.0544,283.8673,9.8253,-0.7474,23.8904,0
143.9855,282.9210,10.0250,-0.7563,24.1396,0
144.9203,281.9236,10.2262,-0.7601,24.9717,0
145.8913,280.8968,10.4477,-0.7632,25.5399,0
146.8191,279.8780,10.6810,-0.7654,24.7835,0
147.7785,278.8508,10.8782,-0.7683,25.4227,0
148.7381,277.8212,11.0944,-0.7710,25.4843,0
149.6931,276.7937,11.3320,-0.7713,25.2535,0
150.6459,275.7430,11.5634,-0.7698,25.7947,0
151.6193,274.6889,11.7950,-0.7690,25.8732,0
152.5744,273.6386,12.0211,-0.7678,25.5508,0
153.5431,272.5909,12.2379,-0.7674,25.8702,0
154.5221,271.5454,12.4764,-0.7699,25.9287,0
155.4898,270.4898,12.7076,-0.7724,25.9480,0
156.4604,269.4225,12.9472,-0.7751,26.0865,0
157.4519,268.3401,13.1686,-0.7769,26.5992,0
158.4304,267.2731,13.4036,-0.7790,26.0482,0
159.4017,266.2042,13.6272,-0.7803,26.1165,0
160.3808,265.1149,13.8722,-0.7808,26.6173,0
161.3680,264.0181,14.1042,-0.7813,26.6706,0
162.3418,262.9283,14.3224,-0.7825,26.2255,0
163.3051,261.8405,14.5949,-0.7850,26.3669,0
164.2761,260.7546,14.7974,-0.7874,26.4023,0
165.2439,259.6639,15.0221,-0.7876,26.1194,0
166.1965,258.5901,15.2843,-0.7874,26.0041,0
167.1728,257.4778,15.5093,-0.7872,26.9773,0
168.1408,256.3828,15.7402,-0.7857,26.2293,0
169.1030,255.3072,15.9707,-0.7843,26.2217,0
170.0515,254.2272,16.2075,-0.7822,25.9015,0
171.0094,253.1678,16.4293,-0.7810,25.9944,0
171.9759,252.0809,16.6690,-0.7789,26.3250,0
172.9463,251.0104,16.9056,-0.7773,26.1709,0
173.9172,249.9460,17.1280,-0.7753,26.0657,0
174.8833,248.8796,17.3759,-0.7743,26.2224,0
175.8426,247.8145,17.6073,-0.7742,25.7421,0
176.7919,246.7874,17.8436,-0.7758,25.3430,0
177.7458,245.7375,18.0889,-0.7767,25.8690,0
178.7115,244.6730,18.3390,-0.7783,25.8994,0
179.6558,243.6326,18.5777,-0.7788,25.3200,0
180.5837,242.6129,18.7955,-0.7794,24.6326,0
181.4877,241.5923,19.0453,-0.7793,24.6598,0
182.4234,240.5683,19.2791,-0.7801,25.1110,0
183.3565,239.5221,19.5150,-0.7816,25.3684,0
184.2829,238.4979,19.7333,-0.7831,25.0342,0
185.2196,237.4529,19.9631,-0.7849,25.3575,0
186.1446,236.4151,20.1960,-0.7856,25.0650,0
187.0553,235.3904,20.4525,-0.7842,24.9707,0
187.9859,234.3440,20.6773,-0.7832,25.2156,0
188.9322,233.3060,20.8848,-0.7829,25.4716,0
189.8781,232.2586,21.1042,-0.7824,25.4226,0
190.8173,231.2289,21.3418,-0.7821,25.2388,0
191.7746,230.1777,21.5735,-0.7830,25.7325,0
192.7156,229.1282,21.7843,-0.7836,25.3560,0
193.6639,228.0798,22.0009,-0.7839,25.6365,0
194.6118,227.0293,22.2326,-0.7857,25.7502,0
195.5533,225.9811,22.4431,-0.7867,25.2961,0
196.4696,224.9439,22.6696,-0.7864,24.8336,0
197.3812,223.9288,22.8508,-0.7874,24.4792,0
198.2936,222.9109,23.0637,-0.7883,24.8957,0
199.2167,221.8757,23.2816,-0.7883,25.0543,0
200.1263,220.8353,23.4929,-0.7880,24.9950,0
201.0260,219.8317,23.6883,-0.7878,24.1939,0
201.9316,218.8261,23.8753,-0.7879,24.4102,0
202.8418,217.8159,24.0578,-0.7883,24.4864,0
203.7325,216.8068,24.2697,-0.7886,24.2084,0
204.6148,215.8005,24.4759,-0.7892,24.3419,0
205.5085,214.7873,24.6574,-0.7910,24.5477,0
206.4179,213.7874,24.8330,-0.7933,24.1092,0
207.3081,212.7697,25.0222,-0.7947,24.3513,0
208.1936,211.7581,25.2135,-0.7937,24.1394,0
209.0832,210.7215,25.4144,-0.7941,24.5862,0
209.9935,209.6908,25.5831,-0.7954,24.7124,0
210.8794,208.6723,25.7717,-0.7956,24.2483,0
211.7725,207.6723,25.9448,-0.7967,24.0926,0
212.6500,206.6478,26.1103,-0.7978,24.3530,0
213.5343,205.6231,26.2953,-0.8008,24.2558,0
214.4073,204.6167,26.4595,-0.8069,23.9678,0
215.2933,203.5827,26.6089,-0.8150,24.5289,0
216.1418,202.5576,26.7912,-0.8231,23.7350,0
216.9526,201.5572,26.9817,-0.8323,22.9928,0
217.7592,200.5936,27.0728,-0.8421,22.4559,0
218.5206,199.6299,27.1798,-0.8513,21.8591,0
219.2321,198.6886,27.3507,-0.8602,21.4005,0
219.9397,197.7647,27.4788,-0.8698,20.8430,0
220.6177,196.8643,27.5832,-0.8786,20.0159,0
221.2639,195.9928,27.6922,-0.8870,19.3924,0
221.8694,195.1352,27.7995,-0.8940,18.6706,0
222.4661,194.3115,27.8818,-0.9013,18.1352,0
223.3223,193.0850,28.0276,-0.9111,17.8321,0
224.1467,191.8982,28.1599,-0.9237,17.0385,0
224.8882,190.7657,28.2938,-0.9371,16.1124,0
225.6138,189.6440,28.4137,-0.9494,15.7972,0
226.3310,188.4954,28.5321,-0.9613,16.3475,0
227.0449,187.3364,28.7079,-0.9744,16.3364,0
227.7568,186.1458,28.7755,-0.9849,16.5992,0
228.4584,184.9572,28.9492,-0.9892,16.5547,0
229.1278,183.7372,29.1063,-0.9953,16.8349,0
229.8478,182.4621,29.2157,-0.9999,17.8093,0
230.3806,181.5504,29.3004,-1.0044,19.2150,0
230.9086,180.6012,29.3792,-1.0065,19.6451,0
231.4736,179.6067,29.4370,-1.0067,20.5645,0
232.0200,178.6313,29.5649,-1.0077,19.9593,0
232.5726,177.6407,29.6630,-1.0083,20.4257,0
233.1338,176.6189,29.7101,-1.0106,21.1140,0
233.7190,175.5727,29.8099,-1.0110,21.4148,0
234.3004,174.5111,29.8979,-1.0105,21.8374,0
234.9146,173.4299,30.0074,-1.0078,22.3440,0
235.5165,172.3363,30.1350,-1.0030,22.3131,0
236.1246,171.2489,30.2317,-0.9961,22.3341,0
236.7579,170.1539,30.3221,-0.9882,22.8143,0
237.4186,169.0376,30.4770,-0.9799,23.4464,0
238.0761,167.9159,30.6110,-0.9689,23.4508,0
238.7569,166.7895,30.7174,-0.9576,23.6099,0
239.4695,165.6718,30.8575,-0.9461,23.8331,0
240.1966,164.5421,30.9958,-0.9341,24.1424,0
240.9372,163.4178,31.1334,-0.9217,24.3068,0
241.6972,162.3100,31.2745,-0.9087,24.1117,0
242.4806,161.1913,31.4224,-0.8949,24.7345,0
243.2880,160.0639,31.5842,-0.8812,24.9304,0
244.1005,158.9586,31.7461,-0.8694,24.5719,0
244.9140,157.8758,31.8985,-0.8596,24.2007,0
245.7522,156.7841,32.0604,-0.8498,24.8497,0
246.6296,155.6730,32.2386,-0.8410,25.6946,0
247.5087,154.5795,32.3880,-0.8334,25.0422,0
248.3788,153.5020,32.5554,-0.8257,24.7146,0
249.2628,152.4301,32.7397,-0.8181,25.1434,0
250.1725,151.3381,32.9220,-0.8110,25.5311,0
251.0849,150.2729,33.0763,-0.8055,25.0782,0
251.9720,149.2363,33.2508,-0.8020,24.4177,0
252.8310,148.2428,33.4352,-0.7997,23.3805,0
253.6628,147.2941,33.5881,-0.7972,22.6703,0
254.4825,146.3545,33.7427,-0.7945,22.2993,0
255.2642,145.4659,33.9191,-0.7905,20.9540,0
256.0112,144.6208,34.0860,-0.7874,20.2263,0
256.7501,143.7885,34.2338,-0.7844,19.6938,0
257.4566,143.0195,34.3757,-0.7817,18.5113,0
258.1418,142.2644,34.5066,-0.7791,18.3674,0
258.8142,141.5155,34.6531,-0.7770,17.8396,0
259.7628,140.4676,34.8725,-0.7740,16.8151,0
260.6562,139.4912,35.0644,-0.7721,15.3442,0
261.5010,138.5649,35.2265,-0.7710,14.9411,0
262.3016,137.6809,35.3993,-0.7698,13.8822,0
263.0453,136.8905,35.5593,-0.7687,12.6790,0
263.7183,136.1477,35.7020,-0.7690,11.5388,0
264.4712,135.3317,35.8580,-0.7685,9.3853,0
265.2130,134.5348,36.0274,-0.7674,6.8888,0
265.9039,133.7979,36.1739,-0.7673,5.2140,0
266.5973,133.0639,36.3198,-0.7664,5.8914,0
267.4174,132.1731,36.5001,-0.7653,8.4534,0
268.1701,131.3646,36.6625,-0.7628,11.0607,0
268.8745,130.6355,36.7963,-0.7596,12.6541,0
269.6615,129.7976,36.9745,-0.7563,14.4704,0
270.5565,128.8565,37.1586,-0.7549,15.9864,0
271.5084,127.8510,37.3497,-0.7567,17.1260,0
272.5422,126.7736,37.5660,-0.7605,18.3863,0
273.2331,126.0380,37.7235,-0.7679,18.2819,0
273.9355,125.2598,37.8827,-0.7795,19.0284,0
274.6407,124.4612,38.0327,-0.7951,19.3964,0
275.3538,123.6324,38.1712,-0.8132,19.7216,0
276.0721,122.7695,38.3336,-0.8324,20.4807,0
276.7823,121.9010,38.4818,-0.8529,20.1195,0
277.4648,121.0024,38.6217,-0.8732,20.4527,0
278.1470,120.0838,38.7782,-0.8931,20.6032,0
278.8150,119.1255,38.9217,-0.9136,21.3026,0
279.4864,118.1527,39.0536,-0.9346,21.1553,0
280.1167,117.1580,39.1977,-0.9541,21.2774,0
280.7431,116.1373,39.3497,-0.9733,21.5392,0
281.3692,115.1109,39.4864,-0.9915,21.8960,0
281.9604,114.0457,39.6620,-1.0109,22.0235,0
282.5266,112.9940,39.7996,-1.0296,21.3874,0
283.1081,111.9304,39.9155,-1.0520,21.8367,0
283.6517,110.8073,40.0333,-1.0732,22.6172,0
284.1613,109.6827,40.1925,-1.0974,22.1308,0
284.6749,108.5673,40.3097,-1.1241,22.0520,0
285.1276,107.4188,40.4424,-1.1538,22.2673,0
285.5462,106.2456,40.5642,-1.1824,22.3617,0
285.9581,105.0725,40.6900,-1.2112,22.4713,0
286.3212,103.8857,40.7811,-1.2408,22.3854,0
286.6627,102.6716,40.8879,-1.2721,22.7496,0
286.9549,101.4368,40.9840,-1.3053,22.7101,0
287.2145,100.1910,41.0645,-1.3387,22.7534,0
287.4262,98.9524,41.1451,-1.3709,22.5457,0
287.6068,97.6917,41.2391,-1.4022,22.8755,0
287.7431,96.4248,41.3181,-1.4326,22.7625,0
287.8327,95.1699,41.3830,-1.4610,22.3522,0
287.8742,93.9041,41.4391,-1.4893,22.6328,0
287.8900,92.6166,41.4759,-1.5195,23.0624,0
287.8850,91.3308,41.5214,-1.5485,23.1013,0
287.8257,90.0469,41.5747,-1.5768,22.7917,0
287.7304,88.7896,41.6050,-1.6060,22.6511,0
287.5997,87.4896,41.6329,-1.6365,23.4118,0
287.4472,86.2005,41.6437,-1.6668,23.1614,0
287.2453,84.9319,41.6586,-1.6968,22.7891,0
287.0068,83.7112,41.6906,-1.7270,22.1107,0
286.7409,82.4871,41.7121,-1.7582,22.6687,0
286.4297,81.2611,41.7238,-1.7876,22.4831,0
286.0844,80.0401,41.7375,-1.8162,22.6237,0
285.7009,78.8400,41.7490,-1.8447,22.4029,0
285.2668,77.6644,41.7433,-1.8759,22.3579,0
284.8095,76.4847,41.7363,-1.9052,22.5541,0
284.3045,75.3125,41.7267,-1.9340,22.8593,0
283.7544,74.1516,41.7161,-1.9643,22.9259,0
283.1808,72.9848,41.6976,-1.9936,23.1458,0
282.5592,71.8304,41.6687,-2.0222,23.4689,0
281.8942,70.6854,41.6291,-2.0474,23.7334,0
281.2120,69.5473,41.5807,-2.0722,23.6294,0
280.5225,68.4340,41.5416,-2.0936,23.3523,0
279.7879,67.3481,41.5062,-2.1129,23.4106,0
279.0393,66.2745,41.4565,-2.1324,23.3352,0
278.2766,65.2132,41.4144,-2.1510,23.2175,0
277.4930,64.1597,41.3548,-2.1667,23.6252,0
276.6889,63.1065,41.2981,-2.1824,23.6922,0
275.8767,62.0918,41.2327,-2.1981,22.9920,0
275.0465,61.0904,41.1571,-2.2122,23.4916,0
274.2043,60.0926,41.0879,-2.2263,23.0827,0
273.3672,59.1226,41.0278,-2.2393,22.9598,0
272.5098,58.1671,40.9513,-2.2521,22.8835,0
271.6531,57.2484,40.8887,-2.2652,22.3789,0
270.7928,56.3382,40.8194,-2.2775,22.6765,0
269.9070,55.4277,40.7273,-2.2901,22.8230,0
269.0190,54.5322,40.6558,-2.3008,22.3439,0
268.1320,53.6614,40.5724,-2.3074,22.2052,0
267.2383,52.7839,40.4767,-2.3133,22.4613,0
266.3532,51.9310,40.3920,-2.3178,21.8870,0
265.4617,51.0737,40.3128,-2.3204,22.2796,0
264.5595,50.2247,40.2353,-2.3222,22.2005,0
263.6695,49.3903,40.1493,-2.3213,21.8006,0
262.7716,48.5336,40.0720,-2.3206,22.2797,0
261.8665,47.6792,39.9902,-2.3211,22.1809,0
261.0082,46.8628,39.9024,-2.3220,21.0981,0
260.1624,46.0482,39.8142,-2.3231,20.9447,0
259.3105,45.2475,39.7290,-2.3229,20.8453,0
258.4764,44.4554,39.6686,-2.3237,20.3336,0
257.6476,43.6831,39.6004,-2.3251,20.4164,0
256.8222,42.9030,39.5406,-2.3251,20.2359,0
256.0163,42.1358,39.4781,-2.3244,19.8542,0
255.2336,41.3863,39.4216,-2.3239,19.1154,0
254.4769,40.6951,39.3575,-2.3229,18.3017,0
253.7356,39.9943,39.2959,-2.3217,18.1918,0
253.0180,39.2979,39.2450,-2.3197,17.7751,0
251.9781,38.3002,39.1552,-2.3175,16.9240,0
250.9861,37.3488,39.0776,-2.3161,16.1064,0
250.0407,36.4386,38.9850,-2.3142,15.5077,0
249.1542,35.5929,38.9098,-2.3123,14.1676,0
248.3264,34.8043,38.8517,-2.3117,13.2902,0
247.5992,34.1014,38.7750,-2.3102,11.3051,0
246.8054,33.3293,38.7050,-2.3087,9.2530,0
246.0649,32.5978,38.6544,-2.3066,5.9889,0
245.2994,31.8548,38.5642,-2.3063,4.9167,0
244.5161,31.0914,38.4971,-2.3052,6.5243,0
243.7388,30.3277,38.4292,-2.2967,8.4668,0
242.9739,29.5592,38.3620,-2.2777,10.0168,0
242.1806,28.6897,38.2898,-2.2449,10.7662,0
241.3286,27.7224,38.2375,-2.1969,11.8563,0
240.6900,26.9314,38.2214,-2.1474,12.3276,0
240.0540,26.0524,38.1739,-2.0883,13.2823,0
239.4774,25.1141,38.1707,-2.0191,13.0102,0
238.9348,24.1197,38.1536,-1.9410,13.4036,0
238.5054,23.0918,38.1767,-1.8551,13.2788,0
238.1489,21.9907,38.2031,-1.7648,13.8178,0
237.9273,20.8441,38.2484,-1.6675,14.0590,0
237.8631,19.6472,38.3539,-1.5698,14.5203,0
237.8421,18.3995,38.4504,-1.4764,14.5705,0
237.9020,17.1603,38.5909,-1.3910,14.6708,0
238.0753,15.9518,38.7061,-1.3096,14.4922,0
238.3398,14.7328,38.8544,-1.2251,15.1326,0
238.7495,13.5086,39.0318,-1.1386,15.6259,0
239.2477,12.3338,39.2218,-1.0528,15.2665,0
239.8221,11.2435,39.4451,-0.9699,14.7136,0
