x,y,z,yaw,velocity,change_flag
98.8297,503.7910,25.7680,1.4844,0,0
98.9622,504.8018,25.8605,1.4988,4.6443,0
99.0569,505.9749,25.9506,1.5420,6.8368,0
99.0895,507.0510,26.0299,1.5946,8.7156,0
99.0842,508.0861,26.1041,1.6470,9.5567,0
98.9898,509.2202,26.1552,1.7071,10.6105,0
98.8039,510.4503,26.1626,1.7708,11.3649,0
98.5918,511.7376,26.1630,1.8403,12.1674,0
98.3113,512.7296,26.1368,1.8808,12.4232,0
98.0107,513.7665,26.1498,1.9076,12.9566,0
97.7036,514.7898,26.1261,1.9279,12.6026,0
97.3822,515.8010,26.1047,1.9352,12.8064,0
97.0395,516.8398,26.0709,1.9225,13.3904,0
96.6464,517.9316,26.1418,1.8963,13.9304,0
96.3692,519.0178,26.1168,1.8629,13.1053,0
96.0869,520.1295,26.1157,1.8253,13.8790,0
95.8329,521.2878,26.1232,1.7865,14.3406,0
95.6452,522.4655,26.1246,1.7504,14.0229,0
95.4621,523.6163,26.1585,1.7128,14.0334,0
95.3417,524.7755,26.2069,1.6776,13.8960,0
95.2603,525.9282,26.2649,1.6482,13.6011,0
95.2134,527.0468,26.3231,1.6226,13.1887,0
95.2047,528.1302,26.3811,1.6027,12.7719,0
95.2123,529.1859,26.4275,1.5868,12.3417,0
95.2304,530.2034,26.5032,1.5757,11.9609,0
95.2704,531.4833,26.5804,1.5669,11.4641,0
95.3199,532.7111,26.6676,1.5666,10.5583,0
95.3600,533.8641,26.7451,1.5660,10.0256,0
95.3929,534.9227,26.8240,1.5657,9.3661,0
95.4434,535.9506,26.8877,1.5655,9.0981,0
95.4738,537.1376,26.9685,1.5657,8.6410,0
95.5152,538.2531,27.0627,1.5649,7.5625,0
95.5528,539.4169,27.1519,1.5635,6.3027,0
95.5933,540.5124,27.2409,1.5631,3.6148,0
95.6387,541.5164,27.3032,1.5638,3.1659,0
95.6880,542.5679,27.3860,1.5646,5.8382,0
95.7364,543.7822,27.4733,1.5660,8.2503,0
95.7864,544.7975,27.5445,1.5702,9.6896,0
95.8189,545.9833,27.6207,1.5786,10.8989,0
95.8394,547.2747,27.7188,1.5895,12.1858,0
95.8481,548.3078,27.7717,1.6007,12.4325,0
95.8457,549.3652,27.8611,1.6143,12.7350,0
95.8194,550.4968,27.8963,1.6311,13.5877,0
95.7922,551.6505,27.9178,1.6517,13.8500,0
95.7286,552.8110,27.9722,1.6793,13.5569,0
95.6337,553.9598,27.9973,1.7099,13.9463,0
95.4982,555.1138,28.0043,1.7505,13.8298,0
95.3170,556.2681,27.9873,1.7935,13.7982,0
95.0895,557.3763,27.9969,1.8411,13.6351,0
94.8253,558.4701,27.9329,1.8876,13.5377,0
94.5412,559.5367,27.9416,1.9401,12.8760,0
94.1533,560.5699,27.8981,1.9870,12.9270,0
93.8097,561.6112,27.7994,2.0448,12.9479,0
93.3255,562.6075,27.7178,2.1052,13.1484,0
92.7681,563.4793,27.6692,2.1637,12.1561,0
92.2598,564.3784,27.5548,2.2294,12.3621,0
91.6346,565.1848,27.4578,2.2969,12.0858,0
90.7855,566.1282,27.2954,2.3908,10.9881,0
89.8866,566.9728,27.1710,2.4872,11.3486,0
88.8844,567.7256,27.0248,2.5786,11.4710,0
87.8151,568.4301,26.8250,2.6756,12.0190,0
86.9410,568.9173,26.6917,2.7521,12.0965,0
86.0369,569.3601,26.5101,2.8315,11.9392,0
85.0776,569.6717,26.3318,2.9047,12.5060,0
84.0025,569.9658,26.1284,2.9634,13.7336,0
82.9703,570.2238,25.9306,3.0048,12.6397,0
81.9337,570.3979,25.7249,3.0334,12.6553,0
80.8794,570.5806,25.5284,3.0545,13.0647,0
79.8201,570.7121,25.3239,3.0711,12.6892,0
78.7947,570.8530,25.1112,3.0868,12.6892,0
77.7078,570.9479,24.9052,3.0981,13.1043,0
76.6337,571.0413,24.7112,3.1079,13.0790,0
75.5574,571.1370,24.5650,3.1151,12.8231,0
74.4380,571.2371,24.3432,3.1169,13.6462,0
73.3627,571.3503,24.1261,3.1197,13.0244,0
72.2437,571.3794,24.0079,3.1199,13.4004,0
71.1579,571.4716,23.7627,3.1200,13.1078,0
70.0355,571.5504,23.5539,3.1218,14.0528,0
68.9156,571.6321,23.4014,3.1238,13.2636,0
67.8048,571.6967,23.1889,3.1271,13.3484,0
66.7056,571.7643,23.0004,3.1311,13.3837,0
65.5812,571.8120,22.8306,3.1358,13.5584,0
64.4663,571.8884,22.5637,3.1401,13.2915,0
63.3682,571.9340,22.4484,-3.1407,12.7291,0
62.0587,571.9775,22.1542,-3.1376,12.3181,0
60.7902,572.0919,21.8554,-3.1173,11.6064,0
59.5610,572.0815,21.7116,-3.0836,10.7753,0
58.4986,572.1170,21.4193,-3.0340,9.2379,0
57.4002,572.0312,21.2563,-2.9692,6.6420,0
56.3261,571.9002,21.1058,-2.8767,5.8361,0
55.2643,571.5356,20.9824,-2.7221,4.9386,0
54.3518,571.0711,20.8065,-2.5492,3.2735,0
55.2518,571.6962,20.9219,-2.5208,4.0212,0
56.1195,572.2610,21.0807,-2.4273,2.5106,0
56.8475,572.9474,21.2292,-2.2854,1.7044,0
56.2456,572.0988,21.2024,-2.1689,2.0380,0
55.6589,571.2819,21.1026,-2.0511,1.5877,0
56.2113,572.1753,21.0969,-1.9351,2.8735,0
56.5527,573.1182,21.2089,-1.7911,0.7650,0
56.3173,572.0704,21.1823,-1.6390,2.7712,0
56.3155,571.0681,21.1393,-1.5126,0.5711,0
56.3384,572.0804,21.1496,-1.5123,1.8434,0
56.3060,573.0966,21.1231,-1.3830,1.0331,0
56.5819,572.1177,21.1887,-1.2109,2.8580,0
56.9828,571.1605,21.1781,-1.0314,4.0390,0
57.5096,570.2728,21.2973,-0.8581,1.2708,0
56.8959,571.1393,21.1926,-0.9088,3.2122,0
57.6109,570.4083,21.2928,-0.7020,3.9633,0
58.4709,569.7072,21.4397,-0.5148,5.2120,0
59.3733,569.1932,21.5641,-0.3488,4.7787,0
60.3134,568.8477,21.6776,-0.2247,4.0323,0
61.3133,568.5929,21.8681,-0.1320,2.0925,0
62.3197,568.4329,22.0343,-0.0789,1.8440,0
63.4357,568.2919,22.2266,-0.0540,5.0189,0
64.4472,568.1940,22.3987,-0.0504,7.2823,0
65.4945,568.0786,22.6034,-0.0474,8.2259,0
66.7104,567.9519,22.8203,-0.0439,9.3210,0
67.8027,567.8577,23.0096,-0.0390,9.9080,0
69.0197,567.7518,23.2277,-0.0247,11.4027,0
70.3163,567.6522,23.4842,-0.0116,12.1142,0
71.3575,567.5785,23.7046,-0.0084,12.6363,0
72.4430,567.4948,23.8993,-0.0053,12.9217,0
73.4974,567.4585,24.1078,-0.0033,12.6286,0
74.8033,567.3901,24.3589,-0.0005,11.8162,0
76.0124,567.3369,24.5771,0.0023,10.1769,0
77.0367,567.2897,24.7846,0.0053,8.9237,0
78.0912,567.2258,24.9855,0.0085,6.7864,0
79.1768,567.2028,25.1771,0.0107,3.7203,0
80.2333,567.1695,25.3697,0.0086,2.9479,0
81.2781,567.0964,25.5819,-0.0286,4.2057,0
82.2857,567.0156,25.7752,-0.0817,6.3291,0
83.4315,566.7876,25.9856,-0.1452,7.6391,0
84.5961,566.5334,26.1691,-0.2084,9.0605,0
85.6047,566.2197,26.3635,-0.2668,10.3226,0
86.7296,565.8034,26.5656,-0.3245,10.8811,0
87.8778,565.2675,26.7599,-0.3831,11.7541,0
89.0807,564.6929,26.9403,-0.4430,12.3600,0
89.9999,564.1773,27.1140,-0.4836,12.6984,0
90.9215,563.6102,27.2528,-0.5211,13.0006,0
91.8239,563.0128,27.4570,-0.5520,12.8704,0
92.7613,562.4108,27.6053,-0.5746,13.5991,0
93.6636,561.7485,27.8396,-0.5885,13.6663,0
94.5870,561.0793,28.0387,-0.5889,13.7683,0
95.4918,560.4164,28.2210,-0.5850,13.4585,0
96.3772,559.7401,28.4278,-0.5688,13.1123,0
97.3063,559.1119,28.6128,-0.5480,13.4681,0
98.1962,558.4697,28.8298,-0.5183,13.2371,0
99.1711,557.8776,29.0808,-0.4859,13.6836,0
100.1677,557.2343,29.2567,-0.4492,14.1886,0
101.2299,556.6475,29.3661,-0.3996,14.7531,0
102.3116,556.1533,29.5030,-0.3512,14.3535,0
103.4216,555.6924,29.6696,-0.3038,14.5085,0
104.5081,555.3102,29.8177,-0.2626,13.7814,0
105.6347,554.9562,29.9680,-0.2264,14.1737,0
106.7548,554.6573,30.1267,-0.1985,13.7962,0
107.8590,554.3918,30.2833,-0.1785,13.6398,0
108.9638,554.1453,30.4744,-0.1626,13.5102,0
110.0212,553.9109,30.6393,-0.1487,12.9813,0
111.0662,553.7175,30.8061,-0.1372,12.9085,0
112.1017,553.5169,30.9807,-0.1268,12.3921,0
113.4050,553.2885,31.1849,-0.1146,11.7399,0
114.5966,553.1025,31.4067,-0.1029,10.5948,0
115.8061,552.9174,31.6015,-0.0881,11.1031,0
117.0927,552.7453,31.8119,-0.0719,12.1054,0
118.1138,552.6108,32.0123,-0.0594,12.6604,0
119.1717,552.5059,32.1646,-0.0473,12.5686,0
120.2104,552.4094,32.3414,-0.0402,12.5329,0
121.2083,552.3125,32.5146,-0.0335,11.8943,0
122.4812,552.2079,32.7366,-0.0260,11.3401,0
123.6672,552.1125,32.9439,-0.0187,10.7139,0
124.7112,552.0370,33.1439,-0.0146,8.9686,0
125.8865,551.9774,33.3442,-0.0082,7.7923,0
126.8879,551.9029,33.5295,-0.0022,6.7008,0
127.9804,551.8391,33.7242,0.0034,4.9957,0
129.0013,551.8004,33.9170,0.0089,3.3887,0
130.0291,551.7554,34.1140,0.0163,2.8521,0
131.1069,551.7339,34.3096,0.0327,3.0357,0
132.1791,551.6772,34.4971,0.0729,5.1198,0
133.2724,551.7025,34.7129,0.1747,6.3326,0
134.2973,551.8845,34.9289,0.3309,6.8946,0
135.2551,552.2597,35.1139,0.5040,8.0635,0
136.1948,552.8394,35.3679,0.7035,8.2023,0
137.0655,553.6141,35.5644,0.9100,8.4679,0
137.7557,554.5781,35.7389,1.1126,8.1295,0
138.2262,555.6282,35.9007,1.3089,8.2929,0
138.4862,556.6767,36.0285,1.4909,7.5229,0
138.5397,557.6899,36.1110,1.6628,7.5295,0
138.4144,558.6948,36.0963,1.8315,7.3510,0
138.1581,559.6850,36.1058,2.0062,7.3062,0
137.6803,560.6765,36.0576,2.1938,7.7004,0
136.9948,561.5708,35.9725,2.3899,8.4018,0
136.1196,562.3456,35.8397,2.5930,8.1080,0
135.1013,562.9218,35.6894,2.7843,8.0065,0
133.9572,563.3307,35.5073,2.9338,8.7842,0
132.7856,563.5775,35.2984,3.0363,8.5561,0
131.6255,563.7255,35.0888,3.1014,8.3998,0
130.4881,563.7943,34.9062,3.1375,7.9980,0
129.4142,563.8436,34.7192,-3.1259,7.6624,0
128.3166,563.8718,34.5126,-3.1134,6.0265,0
127.2297,563.8867,34.3221,-3.1045,4.1032,0
126.1911,563.8838,34.1452,-3.1017,1.4586,0
125.1609,563.8971,33.9636,-3.1045,1.9296,0
124.1490,563.9213,33.7884,-3.1163,3.5276,0
123.1193,563.9567,33.6062,-3.1283,4.5373,0
122.0951,563.9893,33.4223,-3.1390,5.4963,0
121.0585,564.0578,33.2424,3.1345,6.7513,0
119.8877,564.1144,33.0297,3.1273,7.4310,0
118.8328,564.1881,32.8497,3.1214,8.2403,0
117.6848,564.2611,32.6459,3.1152,8.3477,0
116.4580,564.3494,32.4464,3.1088,8.9345,0
115.2395,564.4653,32.2320,3.1026,8.8987,0
114.2416,564.5464,32.0443,3.0974,8.8979,0
113.0727,564.6774,31.8408,3.0908,7.8057,0
111.9455,564.7864,31.6195,3.0842,6.3171,0
110.9039,564.8899,31.4208,3.0765,4.9439,0
109.7764,564.9931,31.2220,3.0369,5.4791,0
108.7204,565.1536,31.0345,2.9684,6.6954,0
107.7234,565.4153,30.8641,2.8919,7.6586,0
106.7664,565.8062,30.7216,2.7948,7.6754,0
105.7175,566.3099,30.5673,2.6875,8.9386,0
104.6592,566.9639,30.3516,2.5696,9.4173,0
103.7937,567.6320,30.2316,2.4814,10.0276,0
102.9554,568.3822,30.1325,2.4004,10.3310,0
102.1737,569.2144,29.9424,2.3313,10.6516,0
101.3937,570.1530,29.7948,2.2590,10.6173,0
100.7064,571.1486,29.7300,2.1821,10.8866,0
100.0584,572.2313,29.6478,2.0954,11.4371,0
99.4767,573.3957,29.5859,2.0009,11.7857,0
99.0976,574.3703,29.5801,1.9260,12.7941,0
98.7526,575.4094,29.5727,1.8547,13.2922,0
98.4793,576.5773,29.5683,1.7967,14.5189,0
98.2414,577.7692,29.5906,1.7456,14.4726,0
98.0890,578.9790,29.6549,1.6980,14.2411,0
97.9873,580.2310,29.7156,1.6568,15.3455,0
97.9100,581.5146,29.7908,1.6213,15.5310,0
97.8894,582.8286,29.8910,1.5995,15.7688,0
97.9001,584.1587,29.9976,1.5923,15.8948,0
97.9366,585.4753,30.1134,1.5931,15.6134,0
97.9575,586.8139,30.2205,1.5919,16.3915,0
97.9902,588.2479,30.3436,1.5878,16.9829,0
98.0022,589.6541,30.4610,1.5850,16.6592,0
98.0306,591.0335,30.5670,1.5827,16.3434,0
98.0581,592.3931,30.6872,1.5800,16.1577,0
98.0782,593.7160,30.8163,1.5767,16.1199,0
98.1177,595.0106,30.9068,1.5746,15.0657,0
98.1475,596.2726,31.0163,1.5722,15.1260,0
98.1774,597.5173,31.1550,1.5696,14.6955,0
98.2282,598.7751,31.2586,1.5705,15.0862,0
98.2655,600.0312,31.3652,1.5719,15.0871,0
98.3052,601.2804,31.4720,1.5734,14.7801,0
98.3380,602.5041,31.5723,1.5756,14.5347,0
98.3701,603.7188,31.6800,1.5765,14.2764,0
98.4045,604.8825,31.8245,1.5771,13.8009,0
98.4304,605.9835,31.9247,1.5763,12.7552,0
98.4721,607.0466,32.0233,1.5739,12.3756,0
98.4885,608.0679,32.1373,1.5692,12.1057,0
98.5334,609.3728,32.2207,1.5653,11.4236,0
98.5820,610.6163,32.3343,1.5624,10.9795,0
98.6428,611.7874,32.4543,1.5584,9.9864,0
98.6836,612.8617,32.5690,1.5536,9.3592,0
98.7303,613.8749,32.7078,1.5502,9.0076,0
98.7983,615.1284,32.8259,1.5494,9.3786,0
98.8504,616.2219,32.8931,1.5504,10.0432,0
98.9043,617.3535,32.9943,1.5539,10.2022,0
98.9600,618.4843,33.1117,1.5576,10.1293,0
99.0022,619.5851,33.2379,1.5603,10.2170,0
99.0429,620.7125,33.3550,1.5635,10.1627,0
99.0935,621.8456,33.4589,1.5631,10.0051,0
99.1330,622.9254,33.5530,1.5616,9.4914,0
99.1771,623.9795,33.6663,1.5593,9.2149,0
99.2352,625.2145,33.7760,1.5576,8.9959,0
99.2968,626.3986,33.8979,1.5638,8.3614,0
99.3658,627.4632,33.9997,1.5865,7.6390,0
99.3625,628.5027,34.0598,1.6327,6.9653,0
99.3373,629.5227,34.1319,1.6966,7.6000,0
99.1894,630.6893,34.1757,1.8097,7.1323,0
98.8950,631.8321,34.1561,1.9487,6.5040,0
98.4569,632.7717,34.1149,2.0865,5.8977,0
97.8981,633.6359,34.0250,2.2223,3.3407,0
98.5349,632.7435,34.1870,2.2515,4.4936,0
99.2059,631.8916,34.3062,2.3132,4.2797,0
99.9055,631.1293,34.4256,2.4271,4.0726,0
100.7530,630.4401,34.6351,2.5901,3.8998,0
101.6916,629.9513,34.8116,2.7726,3.3141,0
100.6895,630.2636,34.5914,2.9485,4.3616,0
99.6939,630.4351,34.2947,3.1189,4.9735,0
98.5563,630.4310,33.9482,-2.9476,5.7280,0
97.5665,630.1985,33.6242,-2.7546,5.7285,0
96.6513,629.7844,33.3325,-2.5631,5.3946,0
95.7272,629.1317,33.0122,-2.3567,5.1132,0
94.9834,628.4127,32.7563,-2.1717,3.5110,0
94.3786,627.5073,32.5042,-1.9750,3.5604,0
93.9070,626.5280,32.3175,-1.7924,4.4952,0
93.6733,625.5184,32.1521,-1.6607,5.9683,0
93.5514,624.4088,32.0205,-1.5643,7.2300,0
93.5454,623.3201,31.9220,-1.5010,8.1208,0
93.6131,622.0801,31.8382,-1.4562,9.2200,0
93.6987,621.0294,31.7788,-1.4329,9.9025,0
93.8142,619.8942,31.7104,-1.4274,10.3889,0
93.9087,618.6956,31.6263,-1.4369,10.9131,0
93.9904,617.4490,31.5589,-1.4524,11.4151,0
94.0604,616.1252,31.4543,-1.4620,12.2159,0
94.1031,615.0784,31.3794,-1.4648,12.6353,0
94.1331,613.9852,31.3027,-1.4711,13.3761,0
94.1744,612.8602,31.2098,-1.4782,13.3523,0
94.2073,611.7075,31.1308,-1.4852,14.1391,0
94.2352,610.5051,31.0355,-1.4924,14.5272,0
94.2476,609.2883,30.9435,-1.4988,14.7829,0
94.2554,607.9896,30.8578,-1.5006,15.7692,0
94.2757,606.6757,30.7480,-1.5014,15.6635,0
94.2843,605.3658,30.6400,-1.5058,15.8579,0
94.2788,603.9921,30.5325,-1.5094,16.7716,0
94.2910,602.6176,30.4509,-1.5133,16.2796,0
94.2842,601.2462,30.3564,-1.5179,16.4166,0
94.2688,599.8569,30.2436,-1.5218,16.5941,0
94.2592,598.4985,30.1389,-1.5248,16.2082,0
94.2333,597.1210,30.0385,-1.5281,16.3421,0
94.2166,595.7245,29.9253,-1.5309,16.6808,0
94.2034,594.3165,29.8144,-1.5332,16.8560,0
94.1708,592.9291,29.7136,-1.5339,16.3276,0
94.1453,591.6183,29.6011,-1.5347,15.3594,0
94.1102,590.3790,29.5033,-1.5362,14.1919,0
94.0845,589.2094,29.4073,-1.5392,13.7449,0
94.0541,588.1179,29.3186,-1.5422,12.9213,0
94.0198,587.1184,29.2351,-1.5440,11.3818,0
93.9894,585.9663,29.1498,-1.5468,9.5573,0
93.9470,584.7594,29.0632,-1.5531,7.8025,0
93.8881,583.6497,28.9729,-1.5604,5.4907,0
93.8350,582.5824,28.8778,-1.5702,4.0142,0
93.7871,581.5829,28.7731,-1.6036,3.8650,0
93.6914,580.5485,28.6759,-1.6643,4.5291,0
93.5325,579.4888,28.5411,-1.7538,6.5510,0
93.1326,578.5093,28.3964,-1.8553,7.8813,0
92.7070,577.4349,28.2130,-1.9678,8.5958,0
92.1918,576.5641,28.0555,-2.0700,9.9970,0
91.6172,575.6741,27.8425,-2.1708,9.3513,0
90.8959,574.8177,27.7144,-2.2778,10.1629,0
90.1175,574.0967,27.4465,-2.3783,10.2538,0
89.2907,573.3242,27.2588,-2.4925,10.2340,0
88.3165,572.7602,26.9176,-2.5907,10.7953,0
87.2675,572.2239,26.7217,-2.6891,11.2797,0
86.1178,571.7631,26.5380,-2.7882,11.3278,0
84.9533,571.3618,26.2810,-2.8817,11.4048,0
83.9644,571.1683,26.0887,-2.9449,12.3397,0
82.9651,571.0200,25.9088,-2.9972,11.9834,0
81.6600,570.9117,25.6590,-3.0527,11.8553,0
80.4077,570.9014,25.4328,-3.0997,10.9204,0
79.1966,570.9636,25.1915,-3.1272,10.8257,0
77.9957,571.0329,24.9567,3.1394,11.3561,0
76.7722,571.1258,24.7643,3.1330,10.6641,0
75.6357,571.1978,24.5786,3.1298,10.2284,0
74.5515,571.2722,24.3898,3.1260,9.0993,0
73.4559,571.3605,24.1675,3.1238,7.5296,0
72.3337,571.4061,23.9893,3.1238,5.7564,0
71.2579,571.4793,23.7841,3.1257,5.6907,0
70.2346,571.5389,23.5967,3.1264,6.6817,0
69.0580,571.6254,23.4107,3.1247,7.5031,0
67.8845,571.6937,23.1984,3.1378,6.6940,0
66.7533,571.7402,23.0072,-3.0910,6.8745,0
65.6930,571.7073,22.7878,-2.9859,6.2828,0
64.5528,571.5024,22.5674,-2.8083,6.0970,0
63.5787,571.1323,22.4200,-2.6247,4.4725,0
62.7155,570.6243,22.2976,-2.4423,2.3988,0
63.4758,571.3065,22.4202,-2.3839,4.0345,0
64.2560,572.0122,22.5654,-2.2929,3.3136,0
64.9495,572.7643,22.6918,-2.1423,1.3352,0
64.3727,571.8799,22.5941,-2.0320,3.1912,0
63.9209,570.9319,22.4892,-1.8893,2.1208,0
64.1832,571.9183,22.5253,-1.7745,2.6598,0
64.4271,572.9151,22.6049,-1.6309,1.3388,0
64.3931,571.9048,22.5932,-1.5517,3.0091,0
64.4068,570.8939,22.5711,-1.4254,1.0978,0
64.2374,571.9019,22.5621,-1.2785,1.4387,0
64.6678,570.9984,22.6274,-0.9344,3.4770,0
65.2917,570.2139,22.6995,-0.7577,4.6993,0
66.1591,569.4399,22.8049,-0.5600,6.7601,0
67.2160,568.8708,23.0006,-0.3767,7.5935,0
68.2101,568.4470,23.1570,-0.2574,7.2899,0
69.2669,568.1292,23.3147,-0.1745,8.0156,0
70.4138,567.8970,23.5124,-0.1072,7.6037,0
71.5265,567.7316,23.7507,-0.0651,6.5060,0
72.5965,567.6241,23.9411,-0.0301,5.9264,0
73.7138,567.5391,24.1607,0.0055,5.3645,0
74.8272,567.4998,24.3641,0.0230,5.6643,0
75.9950,567.4619,24.5705,0.0116,6.5849,0
77.0046,567.4396,24.7711,-0.0043,5.8891,0
78.0477,567.3752,24.9629,-0.0089,4.0103,0
79.0515,567.3259,25.1613,-0.0141,1.7589,0
80.0541,567.2598,25.3288,-0.0246,2.7698,0
81.0710,567.1644,25.5379,-0.0730,4.1416,0
82.1832,566.9863,25.7649,-0.1468,6.1070,0
83.2477,566.7172,25.9419,-0.2274,7.5424,0
84.2571,566.3826,26.1178,-0.3212,7.8729,0
85.3241,565.8765,26.2720,-0.4400,9.1424,0
86.2003,565.3066,26.4174,-0.5401,9.5400,0
87.0616,564.6270,26.5130,-0.6480,9.9838,0
87.8927,563.8412,26.6438,-0.7504,10.3204,0
88.6276,562.9579,26.7266,-0.8434,10.6030,0
89.3965,561.9611,26.8184,-0.9254,11.6053,0
90.0787,560.8355,26.9001,-1.0116,11.9439,0
90.5797,559.8820,26.9397,-1.0835,13.0865,0
91.0659,558.9023,27.0326,-1.1537,12.7934,0
91.4649,557.7668,27.0653,-1.2199,14.5774,0
91.8108,556.6399,27.0936,-1.2815,14.1474,0
92.0831,555.4207,27.1044,-1.3395,15.0019,0
92.2902,554.1402,27.1093,-1.3906,15.5256,0
92.4459,552.8339,27.0823,-1.4375,15.9471,0
92.5304,551.4852,27.0104,-1.4763,16.3288,0
92.5897,550.0750,26.9408,-1.5072,17.2347,0
92.5763,548.6042,26.8682,-1.5242,17.6755,0
92.5704,547.5823,26.8217,-1.5316,18.5358,0
92.5522,546.5688,26.7646,-1.5362,17.8667,0
92.5024,545.0919,26.6714,-1.5440,17.7686,0
92.4675,544.0524,26.6000,-1.5498,18.9322,0
92.4167,543.0157,26.5182,-1.5543,18.5991,0
92.3781,541.9579,26.4441,-1.5575,18.8840,0
92.3291,540.8978,26.3707,-1.5596,18.9266,0
92.2694,539.8720,26.2945,-1.5590,18.2659,0
92.2069,538.8388,26.2148,-1.5590,18.5600,0
92.1601,537.7828,26.1335,-1.5590,19.0358,0
92.0994,536.7153,26.0483,-1.5593,19.0317,0
92.0481,535.6871,25.9664,-1.5592,18.2349,0
91.9967,534.6516,25.8952,-1.5593,18.7464,0
91.9335,533.5963,25.8091,-1.5607,19.0594,0
91.8855,532.5374,25.7272,-1.5637,18.9814,0
91.8266,531.5013,25.6389,-1.5680,18.5298,0
91.7698,530.4908,25.5574,-1.5691,17.9882,0
91.6684,528.9860,25.4430,-1.5640,18.2229,0
91.6170,527.9619,25.3525,-1.5615,18.2551,0
91.5614,526.9468,25.2681,-1.5635,17.9971,0
91.4679,525.4767,25.1345,-1.5843,17.3948,0
91.3355,524.0869,25.0061,-1.6183,16.2321,0
91.1548,522.7978,24.8742,-1.6653,14.8285,0
90.9341,521.5967,24.7226,-1.7199,14.6876,0
90.6644,520.4429,24.5545,-1.7778,14.3075,0
90.3424,519.3047,24.3751,-1.8364,14.0565,0
89.9536,518.2130,24.2028,-1.8889,13.7696,0
89.5479,517.1903,24.0387,-1.9155,13.2451,0
89.1457,516.1755,23.8274,-1.9219,13.2031,0
88.7331,515.2198,23.6488,-1.9120,12.4077,0
88.2475,514.0229,23.4290,-1.8879,11.0324,0
87.8225,512.9321,23.2416,-1.8475,10.3707,0
87.4685,511.9333,23.0643,-1.8074,9.6205,0
87.1625,510.8971,22.9246,-1.7681,9.3720,0
86.8974,509.9100,22.8219,-1.7285,9.1335,0
86.6787,508.7969,22.6747,-1.6821,7.5913,0
86.5279,507.6883,22.5356,-1.6412,6.3827,0
86.4173,506.6696,22.4322,-1.6087,2.1333,0
86.3535,505.6005,22.3460,-1.5511,2.8388,0
86.2859,504.5072,22.2798,-1.4286,3.5694,0
86.3881,503.3965,22.2631,-1.2591,5.0914,0
86.6987,502.3861,22.2886,-1.0856,7.4981,0
87.1441,501.4808,22.3794,-0.9105,7.6438,0
87.7625,500.6816,22.5169,-0.7368,7.1131,0
88.5610,500.0223,22.6850,-0.5631,6.9551,0
89.4312,499.4938,22.8883,-0.3779,8.1066,0
90.4347,499.1629,23.1325,-0.1877,7.7872,0
91.5254,498.9334,23.4069,0.0061,8.2006,0
92.6113,498.9999,23.7082,0.2031,7.9001,0
93.7504,499.2469,23.9754,0.4161,9.1545,0
94.6497,499.8076,24.1052,0.5956,9.8895,0
95.5573,500.4781,24.1534,0.7708,9.4389,0
96.2804,501.3154,24.3850,0.9360,11.3269,0
97.0198,502.1909,24.6498,1.0885,9.6427,0
97.4860,503.2772,24.8660,1.2115,11.7939,0
97.8998,504.4315,25.1194,1.3220,11.2009,0
98.3302,505.6514,25.3105,1.4138,11.8317,0
98.5934,506.7877,25.5849,1.4839,10.5105,0
98.7194,507.9802,25.8342,1.5311,11.3013,0
98.7874,509.1561,26.0953,1.5684,10.2933,0
98.7965,510.2701,26.2111,1.5957,10.0880,0
98.8052,511.3609,26.2674,1.6122,9.6125,0
98.7933,512.6025,26.3372,1.6116,8.8722,0
98.7845,513.7515,26.4324,1.6020,7.7719,0
98.7780,514.7815,26.4987,1.5923,6.8965,0
98.7844,515.9164,26.5754,1.5819,6.2574,0
98.8034,516.9705,26.6253,1.5836,3.2305,0
98.8221,518.0671,26.6823,1.6028,4.1994,0
98.7731,519.2527,26.7353,1.6675,7.2560,0
98.6555,520.5242,26.7763,1.7394,9.9584,0
98.4561,521.7374,26.7732,1.8074,11.3907,0
98.1822,523.0622,26.8043,1.8598,12.7874,0
97.8896,524.0963,26.8134,1.8815,12.6690,0
97.6175,525.1439,26.7806,1.8856,13.0795,0
97.3198,526.2166,26.8000,1.8764,13.1194,0
97.0210,527.2390,26.8170,1.8558,12.5089,0
96.7842,528.2348,26.8033,1.8325,12.1448,0
96.5659,529.2306,26.7978,1.8044,12.3387,0
96.3877,530.2247,26.8071,1.7732,11.8733,0
96.1706,531.5023,26.8521,1.7333,11.3458,0
96.0183,532.7643,26.8770,1.6956,11.2680,0
95.9191,534.0331,26.9381,1.6595,11.1469,0
95.8590,535.2307,26.9832,1.6298,10.4462,0
95.8342,536.3913,27.0244,1.6057,10.0920,0
95.8236,537.4785,27.0829,1.5897,9.0782,0
95.8461,538.6953,27.1871,1.5761,8.1862,0
95.8725,539.8243,27.2762,1.5685,5.9235,0
95.9206,540.8242,27.3433,1.5628,3.0264,0
95.9797,541.9711,27.4289,1.5631,5.4963,0
96.0176,543.0620,27.5086,1.5710,9.1563,0
96.0545,544.2085,27.5840,1.5730,10.9457,0
96.1081,545.5464,27.6864,1.5731,12.7986,0
96.1519,546.6914,27.7377,1.5756,14.0520,0
96.1805,547.9153,27.8418,1.5828,15.0589,0
96.1883,549.2196,27.9322,1.5952,16.0083,0
96.1820,550.6046,27.9917,1.6166,16.7394,0
96.1743,552.0276,28.0309,1.6465,17.2028,0
96.0798,553.4344,28.0974,1.6832,16.6688,0
95.9801,554.8738,28.0964,1.7307,17.1483,0
95.7946,556.2609,28.1182,1.7888,16.3449,0
95.4998,557.5925,28.1163,1.8523,16.1733,0
95.2133,558.9119,28.0460,1.9210,15.8758,0
94.7971,560.1248,28.0256,1.9881,15.3939,0
94.2965,561.2917,27.9264,2.0565,15.1083,0
93.7983,562.4180,27.8325,2.1348,14.5888,0
93.1376,563.4041,27.7290,2.2077,14.0196,0
92.5013,564.3145,27.6052,2.2796,13.4311,0
91.7742,565.1826,27.5018,2.3522,13.4485,0
91.0067,565.9507,27.3371,2.4262,12.6112,0
90.1882,566.6774,27.2120,2.4994,13.4853,0
89.3244,567.4130,27.0437,2.5766,13.4826,0
88.3528,567.9968,26.9125,2.6521,13.8865,0
87.3178,568.5769,26.7577,2.7311,14.0739,0
86.2607,569.1205,26.5537,2.8096,14.4194,0
85.1473,569.5451,26.3623,2.8831,14.4650,0
83.9461,569.8600,26.1160,2.9452,15.5665,0
82.7215,570.1736,25.8934,2.9920,14.9940,0
81.4789,570.4174,25.6595,3.0271,15.5717,0
80.2406,570.6279,25.4128,3.0570,15.2147,0
79.0329,570.8077,25.1601,3.0790,14.7565,0
77.8284,570.9275,24.9310,3.0957,14.5483,0
76.6505,571.0295,24.7253,3.1061,14.2209,0
75.5089,571.1302,24.5443,3.1152,13.6638,0
74.3350,571.2283,24.3187,3.1227,14.2735,0
73.1971,571.3493,24.0969,3.1271,13.6771,0
72.0460,571.3614,23.9580,3.1275,13.8420,0
70.9251,571.4474,23.7209,3.1268,13.8578,0
69.7972,571.5411,23.5180,3.1294,13.6349,0
68.7627,571.5911,23.3745,3.1303,11.9021,0
67.4889,571.6642,23.1150,3.1337,11.2819,0
66.2230,571.7259,22.9295,3.1378,10.9191,0
65.0269,571.7816,22.6825,-3.1407,11.5136,0
63.7839,571.8427,22.4828,-3.1342,11.0499,0
62.6287,571.8539,22.3222,-3.1324,9.6840,0
61.5775,571.9587,22.0162,-3.1263,9.5266,0
60.3885,571.9800,21.8037,-3.1225,7.9681,0
59.3358,571.9922,21.6846,-3.1238,6.9353,0
58.2801,572.0637,21.4509,-3.1269,5.9154,0
57.1992,572.1174,21.2370,-3.1309,3.6543,0
56.1271,572.1604,21.0585,-3.1326,3.4781,0
55.0962,572.1921,20.9024,-3.1351,3.9374,0
54.0738,572.2595,20.7591,-3.1361,4.4254,0
53.0422,572.3192,20.5841,-3.1345,3.8910,0
51.9985,572.3717,20.3467,-3.1345,4.0091,0
